# .PCD v.7 - Point Cloud Data file format
VERSION .7
FIELDS x y z rgb
SIZE 4 4 4 4
TYPE F F F F
COUNT 1 1 1 1
WIDTH 1387
HEIGHT 1
VIEWPOINT 0 0 0 1 0 0 0
POINTS 1387
DATA ascii
-0.305761 -0.466688 1.46444 16777212
-0.302594 -0.465835 1.44926 7042662
-0.299622 -0.465202 1.43503 6451039
-0.298213 -0.466939 1.42828 13951950
-0.297918 -0.470397 1.42687 9740938
-0.298165 -0.47471 1.42805 13622213
-0.297866 -0.478154 1.42662 9279360
-0.2978 -0.481967 1.42631 9872267
-0.297015 -0.484603 1.42254 12372401
-0.296755 -0.488085 1.4213 11846055
-0.296352 -0.49132 1.41937 10925466
-0.296626 -0.495678 1.42068 11320224
-0.296133 -0.49875 1.41832 11451297
-0.296248 -0.502841 1.41887 11911589
-0.295505 -0.505469 1.41531 12043175
-0.295398 -0.509173 1.4148 11912103
-0.29462 -0.511709 1.41108 11649958
-0.29481 -0.515917 1.41198 11649449
-0.294034 -0.518428 1.40827 11714981
-0.294067 -0.522356 1.40843 11517090
-0.293327 -0.524901 1.40488 11713440
-0.293693 -0.52942 1.40663 11844766
-0.29345 -0.532843 1.40547 11778973
-0.294119 -0.537928 1.40868 11450777
-0.29392 -0.541431 1.40772 11122071
-0.294194 -0.545808 1.40904 11056794
-0.293555 -0.548485 1.40598 10859673
-0.293845 -0.552893 1.40736 10925466
-0.29333 -0.555782 1.40489 11122845
-0.293367 -0.559713 1.40507 11057052
-0.292661 -0.562218 1.40169 11056539
-0.292786 -0.566309 1.40229 11253659
-0.292773 -0.570137 1.40223 11319450
-0.292922 -0.574282 1.40294 11188891
-0.292459 -0.577221 1.40072 10662808
-0.292315 -0.580785 1.40004 10070417
-0.29213 -0.584259 1.39915 9675659
-0.292341 -0.588528 1.40016 9412488
-0.291896 -0.591473 1.39803 8556924
-0.292156 -0.595845 1.39927 7898994
-0.292262 -0.599906 1.39978 6584675
-0.292551 -0.604349 1.40117 7110506
-0.291862 -0.606766 1.39787 13359559
-0.291865 -0.610613 1.39788 13688010
-0.29096 -0.612547 1.39354 4475720
-0.29154 -0.617604 1.39632 1055004
-0.291018 -0.620328 1.39382 727327
-0.292873 -0.628135 1.40271 465184
-0.29195 -0.629998 1.39829 1124916
-0.292766 -0.635611 1.4022 1519165
-0.291861 -0.637485 1.39786 1716806
-0.292094 -0.641838 1.39898 1980489
-0.293188 -0.6481 1.40422 1717059
-0.294253 -0.654325 1.40932 2306626
-0.293156 -0.655743 1.40406 10792355
-0.290849 -0.654411 1.39301 9673363
-0.300237 -0.679484 1.43798 10394779
-0.587726 -1.34558 2.8149 1251355
-0.573179 -1.31982 2.74523 792602
-0.576732 -1.33559 2.76224 529948
-0.305554 -0.719661 1.46344 0
-0.2863 -0.678078 1.37122 0
-0.286207 -0.681626 1.37078 0
-0.285655 -0.684069 1.36814 0
-0.288348 -0.694312 1.38104 0
-0.289541 -0.700993 1.38675 0
-0.289514 -0.704739 1.38662 0
-0.288704 -0.706566 1.38274 0
-0.286358 -0.704591 1.3715 0
-0.287289 -0.710661 1.37596 0
-0.288701 -0.717954 1.38273 0
-0.291211 -0.728027 1.39475 0
-0.297003 -0.746416 1.42249 0
-0.294069 -0.742912 1.40844 0
-0.287034 -0.728916 1.37474 0
-0.286533 -0.731413 1.37234 0
-0.484149 -1.24859 2.31882 0
-0.483225 -1.25257 2.31439 0
-0.479361 -1.24886 2.29589 0
-0.474005 -1.24114 2.27023 0
-0.470824 -1.23901 2.255 0
-0.463681 -1.22631 2.22079 0
-0.46738 -1.24225 2.23851 0
-0.463294 -1.23748 2.21894 0
-0.450211 -1.20846 2.15627 0
-0.453332 -1.2228 2.17122 0
-0.456757 -1.23805 2.18763 0
-0.460316 -1.25376 2.20467 0
-0.457483 -1.25206 2.1911 0
-0.435164 -1.1967 2.08421 0
-0.43798 -1.21021 2.09769 0
-0.418572 -1.16209 2.00474 0
-0.528698 0.0140986 2.56595 4344134
-0.536083 0.00714778 2.60179 4673099
-0.535471 0 2.59882 4607306
-0.537089 -0.0286447 2.60667 12962497
-0.392791 -0.445163 1.90634 14809031
-0.390141 -0.447362 1.89348 13822899
-0.38863 -0.450811 1.88615 16252667
-0.386606 -0.453618 1.87633 16185593
-0.382401 -0.453782 1.85592 16776958
-0.36344 -0.436128 1.7639 16776701
-0.349868 -0.424506 1.69802 16512760
-0.346831 -0.425445 1.68328 15854068
-0.346126 -0.429196 1.67986 15788789
-0.345198 -0.432648 1.67536 16644863
-0.344343 -0.436168 1.67121 16119551
-0.34353 -0.439718 1.66726 15988991
-0.343156 -0.443814 1.66545 16580095
-0.34194 -0.446801 1.65955 16776958
-0.341525 -0.450812 1.65753 16777211
-0.340009 -0.453346 1.65018 16776950
-0.339384 -0.457037 1.64714 16580597
-0.337994 -0.459671 1.6404 15334609
-0.336877 -0.462645 1.63498 13560234
-0.331776 -0.460062 1.61022 15794137
-0.320758 -0.449061 1.55675 15531991
-0.312753 -0.442024 1.51789 15269582
-0.30979 -0.441967 1.50351 16252910
-0.307168 -0.442322 1.49079 16711672
-0.305482 -0.443968 1.48261 16580602
-0.303298 -0.444837 1.47201 16449531
-0.302356 -0.447487 1.46743 11782068
-0.301593 -0.45038 1.46373 7967103
-0.302511 -0.455784 1.46819 399383
-0.303194 -0.460855 1.4715 10334865
-0.303698 -0.46567 1.47395 15200990
-0.30181 -0.466799 1.46478 16646139
-0.298568 -0.465767 1.44905 6516064
-0.295593 -0.465066 1.43461 5529937
-0.294423 -0.467151 1.42893 13426634
-0.294298 -0.470877 1.42833 11977643
-0.294581 -0.475258 1.4297 8753531
-0.294112 -0.478422 1.42742 13951431
-0.293948 -0.482075 1.42663 13490112
-0.293325 -0.484964 1.4236 12175022
-0.293076 -0.488459 1.42239 11057052
-0.292583 -0.491539 1.42 11057052
-0.292624 -0.49551 1.4202 11714981
-0.292182 -0.498658 1.41806 11846310
-0.292407 -0.50294 1.41915 11911587
-0.2916 -0.50544 1.41523 11911589
-0.291604 -0.509335 1.41525 11648931
-0.290842 -0.511882 1.41155 11518372
-0.291014 -0.516065 1.41239 11321254
-0.290414 -0.518873 1.40948 11122844
-0.290422 -0.52276 1.40952 11057052
-0.289903 -0.52569 1.40699 11450268
-0.29024 -0.530172 1.40863 11187350
-0.289991 -0.533584 1.40742 11055764
-0.290707 -0.538777 1.4109 11318936
-0.290362 -0.542009 1.40922 11187864
-0.290594 -0.546318 1.41035 11057048
-0.290016 -0.549097 1.40754 10925465
-0.290063 -0.553054 1.40777 11188637
-0.28954 -0.555916 1.40523 10793880
-0.289075 -0.558878 1.40298 10925466
-0.288569 -0.561747 1.40052 11056539
-0.288696 -0.565844 1.40114 11187866
-0.288966 -0.570226 1.40245 11056278
-0.289162 -0.574469 1.4034 10399121
-0.288668 -0.577336 1.401 10268050
-0.288393 -0.580632 1.39967 10268566
-0.288165 -0.584015 1.39856 10333075
-0.288252 -0.588033 1.39898 9148034
-0.288091 -0.591547 1.3982 8425338
-0.288149 -0.595509 1.39848 6847334
-0.2884 -0.599871 1.3997 6321503
-0.288783 -0.604519 1.40156 6715234
-0.288491 -0.607755 1.40015 12833215
-0.288093 -0.610758 1.39821 13951180
-0.28705 -0.612374 1.39315 3423032
-0.287604 -0.61739 1.39584 989465
-0.28796 -0.621994 1.39757 464669
-0.289603 -0.629404 1.40554 662816
-0.289274 -0.632546 1.40394 1124407
-0.289763 -0.637479 1.40632 1782338
-0.287847 -0.637101 1.39702 1979723
-0.287223 -0.63955 1.39399 1717063
-0.288534 -0.646316 1.40035 1978947
-0.290944 -0.655594 1.41205 3424593
-0.289178 -0.655471 1.40348 11779257
-0.289445 -0.659934 1.40477 922898
-0.56984 -1.32203 2.76562 791832
-0.571899 -1.33443 2.77561 595225
-0.56758 -1.33192 2.75465 596255
-0.56449 -1.3322 2.73966 2178372
-0.28916 -0.690129 1.40339 0
-0.2902 -0.696479 1.40844 0
-0.285643 -0.689351 1.38632 0
-0.284693 -0.690855 1.38171 0
-0.282605 -0.689557 1.37158 0
-0.285142 -0.699549 1.38389 0
-0.286432 -0.706532 1.39015 0
-0.285869 -0.708956 1.38742 0
-0.285289 -0.71132 1.3846 0
-0.285837 -0.716497 1.38726 0
-0.285483 -0.719418 1.38555 0
-0.286641 -0.726157 1.39116 0
-0.288206 -0.733964 1.39876 0
-0.290439 -0.743523 1.4096 0
-0.272833 -0.702091 1.32415 0
-0.278554 -0.720526 1.35191 0
-0.275342 -0.715889 1.33633 0
-0.476875 -1.25259 2.31444 0
-0.474629 -1.25302 2.30353 0
-0.469151 -1.24481 2.27694 0
-0.462422 -1.23313 2.24429 0
-0.458834 -1.22967 2.22687 0
-0.459603 -1.23786 2.23061 0
-0.460115 -1.24538 2.23309 0
-0.458119 -1.24608 2.2234 0
-0.453789 -1.24036 2.20239 0
-0.448582 -1.23211 2.17712 0
-0.449815 -1.24149 2.1831 0
-0.449964 -1.2479 2.18382 0
-0.433078 -1.20684 2.10187 0
-0.42695 -1.19546 2.07213 0
-0.41946 -1.18008 2.03578 0
-0.387333 -0.444909 1.90526 13759658
-0.385087 -0.447533 1.89421 13824169
-0.383349 -0.450694 1.88566 16515066
-0.381264 -0.453395 1.87541 16382463
-0.377253 -0.453723 1.85568 16776957
-0.344981 -0.424233 1.69693 16776445
-0.342105 -0.42532 1.68279 16776959
-0.34167 -0.429397 1.68065 16580351
-0.340825 -0.43294 1.67649 16580350
-0.340136 -0.436661 1.6731 14609650
-0.339162 -0.439994 1.66831 13231336
-0.338378 -0.443549 1.66445 16318448
-0.337434 -0.446872 1.65981 16383982
-0.33696 -0.450798 1.65748 16777205
-0.335709 -0.45366 1.65132 16777205
-0.334997 -0.457226 1.64783 16383984
-0.333867 -0.460195 1.64226 15859673
-0.333057 -0.46358 1.63828 13692081
-0.328469 -0.461631 1.61571 15859683
-0.317775 -0.450897 1.56311 15794143
-0.309041 -0.44268 1.52015 15925218
-0.306049 -0.44253 1.50543 16449527
-0.303607 -0.443102 1.49342 16711674
-0.302032 -0.444885 1.48567 16580603
-0.299519 -0.445231 1.47331 16449532
-0.298378 -0.447568 1.4677 14280159
-0.29745 -0.450194 1.46313 11056821
-0.298384 -0.45564 1.46772 464148
-0.299248 -0.461004 1.47198 8689279
-0.299965 -0.466163 1.47551 14213841
-0.297795 -0.466814 1.46483 16515063
-0.294333 -0.465364 1.4478 6778465
-0.291563 -0.464924 1.43417 6451294
-0.290788 -0.467619 1.43036 13820878
-0.290719 -0.471436 1.43002 6518365
-0.290847 -0.475574 1.43065 14346193
-0.290188 -0.478418 1.42741 13688261
-0.289839 -0.481759 1.42569 12175022
-0.289348 -0.484854 1.42328 11188384
-0.289124 -0.488385 1.42218 11780775
-0.288808 -0.491754 1.42062 11780775
-0.288706 -0.495482 1.42012 11714981
-0.288305 -0.498689 1.41815 11977896
-0.288294 -0.502567 1.41809 11977380
-0.287581 -0.50521 1.41459 11780003
-0.287284 -0.508571 1.41313 11254173
-0.286757 -0.511512 1.41053 11255200
-0.28706 -0.515931 1.41202 11058080
-0.286842 -0.519417 1.41095 10859672
-0.287154 -0.523862 1.41249 10859673
-0.286597 -0.526719 1.40975 11187096
-0.286699 -0.53078 1.41025 10793106
-0.286262 -0.533839 1.4081 10859668
-0.286887 -0.538883 1.41118 10859669
-0.286604 -0.542224 1.40978 11188634
-0.286781 -0.546433 1.41065 10991258
-0.286192 -0.549179 1.40775 10991259
-0.286294 -0.553244 1.40826 11057051
-0.285621 -0.555803 1.40495 11057051
-0.285229 -0.558895 1.40302 11056794
-0.284777 -0.561857 1.40079 10991001
-0.285049 -0.566246 1.40213 11122073
-0.285088 -0.570176 1.40232 10924692
-0.284955 -0.57376 1.40167 10662293
-0.284333 -0.576352 1.39861 10597015
-0.284245 -0.580014 1.39818 10925980
-0.284042 -0.583438 1.39718 10530968
-0.284322 -0.587855 1.39856 9345670
-0.284199 -0.591442 1.39795 8622717
-0.284435 -0.595776 1.39911 6781027
-0.284574 -0.599912 1.39979 6452831
-0.284825 -0.60429 1.40103 9346948
-0.284724 -0.607924 1.40053 13688008
-0.284363 -0.610995 1.39876 13819596
-0.283665 -0.61333 1.39533 4409672
-0.284231 -0.618395 1.39811 1120544
-0.284467 -0.622752 1.39927 727327
-0.285872 -0.62969 1.40618 728611
-0.285611 -0.632975 1.4049 1387065
-0.285955 -0.637602 1.40659 1783109
-0.284514 -0.638233 1.3995 1979978
-0.283604 -0.640026 1.39503 1716806
-0.283994 -0.644742 1.39694 2241611
-0.286672 -0.654696 1.41012 1911105
-0.285359 -0.655555 1.40366 332559
-0.285398 -0.659501 1.40385 1055772
-0.291181 -0.676798 1.43229 1251353
-0.565271 -1.32915 2.78052 595223
-0.566195 -1.33898 2.78507 464923
-0.565897 -1.34592 2.7836 925993
-0.559894 -1.33921 2.75408 2505799
-0.287133 -0.698432 1.41238 0
-0.283645 -0.69378 1.39523 0
-0.281259 -0.691744 1.38349 0
-0.278693 -0.689201 1.37087 0
-0.281121 -0.699004 1.38281 0
-0.283561 -0.708904 1.39482 0
-0.281854 -0.708443 1.38641 0
-0.281131 -0.710426 1.38286 0
-0.280405 -0.71238 1.37929 0
-0.280761 -0.717078 1.38104 0
-0.280286 -0.719653 1.3787 0
-0.284289 -0.733774 1.3984 0
-0.28571 -0.741301 1.40538 0
-0.282229 -0.736084 1.38826 0
-0.270848 -0.71006 1.33228 0
-0.476167 -1.26763 2.34223 0
-0.475406 -1.27203 2.33849 0
-0.466766 -1.25522 2.29599 0
-0.45605 -1.23257 2.24328 0
-0.454919 -1.23566 2.23771 0
-0.456601 -1.2464 2.24598 0
-0.456847 -1.25324 2.24719 0
-0.451981 -1.246 2.22326 0
-0.444675 -1.23187 2.18732 0
-0.440158 -1.2253 2.1651 0
-0.437158 -1.22286 2.15034 0
-0.434866 -1.22233 2.13907 0
-0.431513 -1.21873 2.12258 0
-0.414658 -1.17673 2.03967 0
-0.405502 -1.15623 1.99463 0
-0.383202 -0.446194 1.91076 14022062
-0.380904 -0.448736 1.8993 15334105
-0.378866 -0.451526 1.88914 16121853
-0.376351 -0.453683 1.8766 16187134
-0.371521 -0.452951 1.85252 16646140
-0.348159 -0.429238 1.73603 16580603
-0.340172 -0.42405 1.6962 16777207
-0.338037 -0.426019 1.68555 16645876
-0.337483 -0.429944 1.68279 16121330
-0.336599 -0.433428 1.67838 16252663
-0.335747 -0.436931 1.67414 13756389
-0.334633 -0.440065 1.66858 12708324
-0.333677 -0.443379 1.66381 15727334
-0.332593 -0.446495 1.65841 16383987
-0.332377 -0.450758 1.65733 16580083
-0.331129 -0.453601 1.65111 16515059
-0.330646 -0.45747 1.6487 16383984
-0.329509 -0.46041 1.64303 15465944
-0.328999 -0.464204 1.64049 13756089
-0.324907 -0.462881 1.62008 16121840
-0.314299 -0.452074 1.56719 16383992
-0.3057 -0.443894 1.52431 16449530
-0.302553 -0.443468 1.50862 16580605
-0.300311 -0.444296 1.49744 16711677
-0.298736 -0.446058 1.48959 16580605
-0.295663 -0.44552 1.47426 16383998
-0.29452 -0.447831 1.46856 13753054
-0.293397 -0.450143 1.46296 7700361
-0.294447 -0.455788 1.4682 596503
-0.295195 -0.460989 1.47193 7504496
-0.296362 -0.466872 1.47775 14411986
-0.293953 -0.467103 1.46574 16711671
-0.290477 -0.465558 1.4484 6777435
-0.28751 -0.464742 1.43361 6384474
-0.286748 -0.467439 1.42981 13753801
-0.286624 -0.471163 1.42919 9149569
-0.286757 -0.475309 1.42985 13425091
-0.286062 -0.478076 1.42639 12109486
-0.285562 -0.481152 1.4239 12175279
-0.284994 -0.4841 1.42107 12043693
-0.285049 -0.488098 1.42134 11846568
-0.284699 -0.491397 1.41959 11583396
-0.284717 -0.49533 1.41969 11386016
-0.284194 -0.498313 1.41708 11320223
-0.284335 -0.502454 1.41778 11977380
-0.283615 -0.505068 1.41419 11779487
-0.283554 -0.508844 1.41389 11516831
-0.283247 -0.512173 1.41236 11188637
-0.283424 -0.516374 1.41324 10925980
-0.283186 -0.519821 1.41205 10925465
-0.283516 -0.524311 1.4137 10728087
-0.28302 -0.527271 1.41122 10991001
-0.282817 -0.530767 1.41021 10990485
-0.282129 -0.533339 1.40678 10793876
-0.28269 -0.538273 1.40958 10925462
-0.282503 -0.541787 1.40865 10859672
-0.282785 -0.546201 1.41005 10925466
-0.28247 -0.549462 1.40848 10859673
-0.282612 -0.553611 1.40919 10859672
-0.282034 -0.556341 1.40631 10793879
-0.281611 -0.559365 1.4042 10859415
-0.281144 -0.562289 1.40187 10727829
-0.28111 -0.566071 1.4017 11056794
-0.280919 -0.569534 1.40075 10925465
-0.280834 -0.573209 1.40032 11057052
-0.280489 -0.576347 1.3986 10991259
-0.280872 -0.580982 1.40051 10991259
-0.280417 -0.583882 1.39824 10202003
-0.280748 -0.588418 1.3999 9937036
-0.280281 -0.591278 1.39757 8951682
-0.280981 -0.596604 1.40106 7504236
-0.280802 -0.60007 1.40016 7044454
-0.281274 -0.604931 1.40252 9214848
-0.281073 -0.608349 1.40151 13622215
-0.280847 -0.611708 1.40039 14608092
-0.279904 -0.613487 1.39568 67849
-0.280334 -0.618271 1.39783 857626
-0.281054 -0.623708 1.40142 595480
-0.284095 -0.634349 1.41658 465437
-0.283961 -0.637939 1.41591 1058614
-0.282581 -0.63871 1.40903 1782597
-0.281289 -0.639642 1.40259 1848394
-0.280162 -0.640919 1.39697 1914187
-0.280621 -0.645814 1.39926 2241358
-0.280842 -0.650169 1.40036 1584190
-0.280745 -0.653789 1.39988 792604
-0.281145 -0.658572 1.40187 924699
-0.563805 -1.34386 2.8113 661016
-0.564066 -1.35221 2.8126 661273
-0.561137 -1.35288 2.798 925480
-0.557114 -1.35081 2.77794 2439239
-0.292604 -0.717482 1.45901 0
-0.276385 -0.681496 1.37814 0
-0.279691 -0.693481 1.39463 0
-0.277773 -0.692531 1.38506 0
-0.276215 -0.692428 1.37729 0
-0.276781 -0.697639 1.38011 0
-0.276601 -0.700974 1.37921 0
-0.275214 -0.701229 1.3723 0
-0.273078 -0.699529 1.36165 0
-0.274218 -0.706205 1.36733 0
-0.274487 -0.710659 1.36868 0
-0.275905 -0.718108 1.37574 0
-0.278973 -0.729916 1.39104 0
-0.280423 -0.737552 1.39827 0
-0.280226 -0.740872 1.39729 0
-0.271639 -0.721889 1.35447 0
-0.469352 -1.26661 2.34033 0
-0.467702 -1.26856 2.33211 0
-0.450369 -1.22772 2.24567 0
-0.458672 -1.25663 2.28707 0
-0.456423 -1.25673 2.27586 0
-0.454619 -1.25799 2.26687 0
-0.436555 -1.21398 2.17679 0
-0.44241 -1.23632 2.20599 0
-0.440196 -1.23617 2.19495 0
-0.433081 -1.22212 2.15947 0
-0.425456 -1.20643 2.12145 0
-0.423408 -1.20642 2.11124 0
-0.423734 -1.21316 2.11286 0
-0.413135 -1.19413 2.06002 0
-0.378594 -0.446952 1.914 16449513
-0.376479 -0.449683 1.90331 16646139
-0.374336 -0.452322 1.89248 15727613
-0.370976 -0.453415 1.87549 14350840
-0.341692 -0.427115 1.72744 16318452
-0.335756 -0.424358 1.69743 16252396
-0.333941 -0.426702 1.68826 15858406
-0.333206 -0.430391 1.68454 15923951
-0.332077 -0.433546 1.67884 16252920
-0.33125 -0.437066 1.67465 12837085
-0.329832 -0.439776 1.66748 12904419
-0.328944 -0.443161 1.663 16054768
-0.327769 -0.446129 1.65705 16318452
-0.327455 -0.45025 1.65547 16580597
-0.326102 -0.452919 1.64862 16711672
-0.325794 -0.457017 1.64707 16580599
-0.324868 -0.46023 1.64239 16449523
-0.324404 -0.464079 1.64004 16056297
-0.320847 -0.463445 1.62206 16580603
-0.311562 -0.454361 1.57512 16580603
-0.301912 -0.444482 1.52633 16711677
-0.298348 -0.443378 1.50831 16711677
-0.295951 -0.443926 1.4962 16711677
-0.294505 -0.445848 1.48889 16580605
-0.291344 -0.445109 1.47291 16383998
-0.290216 -0.447416 1.4672 12765650
-0.289148 -0.449785 1.4618 8029333
-0.290068 -0.455246 1.46646 1125150
-0.290954 -0.460677 1.47093 10531483
-0.292212 -0.466727 1.47729 13293250
-0.290314 -0.467729 1.4677 16711667
-0.286845 -0.466123 1.45016 7632229
-0.28397 -0.465395 1.43563 6449753
-0.283019 -0.467767 1.43082 12504504
-0.282611 -0.471018 1.42875 11386278
-0.282688 -0.475073 1.42915 12701368
-0.282068 -0.477949 1.42601 13425346
-0.281813 -0.481431 1.42472 12438196
-0.281013 -0.483966 1.42068 11517349
-0.280913 -0.487696 1.42017 11583396
-0.28032 -0.49056 1.41717 11583396
-0.280603 -0.494952 1.4186 11386016
-0.279947 -0.497683 1.41529 11320223
-0.279964 -0.501603 1.41537 11582622
-0.279435 -0.504536 1.4127 11582108
-0.279471 -0.508481 1.41288 11385243
-0.279236 -0.511933 1.41169 10991255
-0.279372 -0.516062 1.41238 10925465
-0.279263 -0.51974 1.41183 10728086
-0.279834 -0.524688 1.41472 10596501
-0.279247 -0.527468 1.41175 10925208
-0.279073 -0.531015 1.41087 10662036
-0.278336 -0.533478 1.40715 10859672
-0.278762 -0.538166 1.4093 10728086
-0.278547 -0.541619 1.40821 10662294
-0.279044 -0.546462 1.41072 10662294
-0.278906 -0.550064 1.41002 10596501
-0.279161 -0.554445 1.41131 10859672
-0.278355 -0.556709 1.40724 10596500
-0.27797 -0.559801 1.40529 11122587
-0.277297 -0.562296 1.40189 10925208
-0.277566 -0.566697 1.40325 11056794
-0.277176 -0.569752 1.40128 11057052
-0.277166 -0.573579 1.40123 11057052
-0.276432 -0.575899 1.39752 11188125
-0.276981 -0.58089 1.40029 11386016
-0.276646 -0.584031 1.3986 10661781
-0.277072 -0.588778 1.40075 10068621
-0.276561 -0.591533 1.39817 9148034
-0.277291 -0.596947 1.40186 7372650
-0.277141 -0.600473 1.4011 7307112
-0.277608 -0.605341 1.40347 7833195
-0.276899 -0.60764 1.39988 13556677
-0.277087 -0.611901 1.40083 14344411
-0.276156 -0.613681 1.39612 198412
-0.276889 -0.619155 1.39983 989726
-0.277078 -0.623426 1.40079 924445
-0.279855 -0.63356 1.41482 597542
-0.27887 -0.635205 1.40984 1848900
-0.277227 -0.635313 1.40154 1521221
-0.276603 -0.637723 1.39838 1718092
-0.276854 -0.642148 1.39965 1717324
-0.276994 -0.64632 1.40036 1781830
-0.277853 -0.652183 1.4047 1715783
-0.276941 -0.653888 1.40009 332829
-0.277715 -0.659574 1.40401 792602
-0.558774 -1.35037 2.82491 529430
-0.55738 -1.35474 2.81787 332823
-0.551586 -1.34832 2.78857 465956
-0.290325 -0.717748 1.46776 0
-0.282215 -0.701619 1.42676 0
-0.277885 -0.694712 1.40486 0
-0.275804 -0.693342 1.39434 0
-0.274305 -0.693383 1.38677 0
-0.274103 -0.696679 1.38574 0
-0.273249 -0.698303 1.38143 0
-0.273201 -0.701975 1.38118 0
-0.270586 -0.699013 1.36796 0
-0.270174 -0.701701 1.36588 0
-0.268286 -0.700525 1.35634 0
-0.271839 -0.713578 1.3743 0
-0.273 -0.720417 1.38017 0
-0.272426 -0.722687 1.37727 0
-0.269304 -0.718143 1.36148 0
-0.276279 -0.740582 1.39674 0
-0.461269 -1.25568 2.33197 0
-0.454602 -1.24384 2.29826 0
-0.457062 -1.25692 2.3107 0
-0.4581 -1.26614 2.31595 0
-0.451629 -1.25452 2.28323 0
-0.455828 -1.27252 2.30446 0
-0.449607 -1.2614 2.27301 0
-0.431746 -1.21728 2.18272 0
-0.430994 -1.22115 2.17891 0
-0.433877 -1.23535 2.19349 0
-0.426995 -1.22168 2.1587 0
-0.423854 -1.21858 2.14282 0
-0.424816 -1.22725 2.14768 0
-0.425459 -1.23501 2.15093 0
-0.421236 -1.2286 2.12958 0
-0.182126 0.112867 0.933715 6843495
-0.182541 0.110553 0.935843 7304046
-0.373234 -0.446829 1.91348 12632778
-0.372319 -0.450978 1.90879 14999528
-0.370135 -0.453546 1.8976 15792637
-0.365506 -0.453021 1.87386 14875354
-0.35396 -0.443696 1.81467 15334358
-0.335689 -0.425522 1.721 16383985
-0.330989 -0.424225 1.6969 16383982
-0.329391 -0.426817 1.68871 15858152
-0.328476 -0.430257 1.68402 15858158
-0.32722 -0.433221 1.67758 16056311
-0.326621 -0.437028 1.67451 13492184
-0.325126 -0.439607 1.66684 14217964
-0.324465 -0.443283 1.66345 16580600
-0.323129 -0.446009 1.65661 16383991
-0.322875 -0.450206 1.6553 16711674
-0.321452 -0.452749 1.64801 16711675
-0.321044 -0.456696 1.64592 16580603
-0.320022 -0.45975 1.64068 16646139
-0.31948 -0.46347 1.63789 16515063
-0.316879 -0.464161 1.62457 16776957
-0.309477 -0.457677 1.58661 16711167
-0.298763 -0.44604 1.53169 16711677
-0.29405 -0.443146 1.50753 16711422
-0.291778 -0.443832 1.49588 16711422
-0.290177 -0.445483 1.48767 16580350
-0.287089 -0.444786 1.47184 16710911
-0.2858 -0.446814 1.46523 12698834
-0.284929 -0.449465 1.46076 8161949
-0.28586 -0.45496 1.46553 1321763
-0.286929 -0.460702 1.47101 8163194
-0.28843 -0.467175 1.47871 13754571
-0.286426 -0.467963 1.46844 16711665
-0.282963 -0.466291 1.45068 7829608
-0.279846 -0.465096 1.4347 6581339
-0.278983 -0.467591 1.43028 12372918
-0.27857 -0.470822 1.42816 11386278
-0.278729 -0.475017 1.42898 13885387
-0.27807 -0.47781 1.4256 13030333
-0.277767 -0.481202 1.42404 11517094
-0.277156 -0.484047 1.42091 11583142
-0.277021 -0.487714 1.42022 11846568
-0.276509 -0.490705 1.41759 11649188
-0.276793 -0.495109 1.41905 11254684
-0.276197 -0.497932 1.416 11123098
-0.27644 -0.502265 1.41724 11057047
-0.276159 -0.505643 1.4158 10793106
-0.276295 -0.509784 1.4165 10924692
-0.275915 -0.512969 1.41455 10858899
-0.27584 -0.516715 1.41417 10728340
-0.275671 -0.52028 1.4133 10925462
-0.276029 -0.524845 1.41514 10925208
-0.275336 -0.527404 1.41158 10991258
-0.275441 -0.531484 1.41212 10793622
-0.274723 -0.533969 1.40844 10728087
-0.275194 -0.53876 1.41085 10530708
-0.274578 -0.541421 1.40769 10859673
-0.275033 -0.546192 1.41003 10596500
-0.274657 -0.549314 1.4081 10661781
-0.274927 -0.553726 1.40948 10859415
-0.274093 -0.555907 1.40521 11122844
-0.274106 -0.559795 1.40528 11056794
-0.273445 -0.562296 1.40189 11122587
-0.273887 -0.567062 1.40415 11188380
-0.273301 -0.569697 1.40115 11385504
-0.273525 -0.574018 1.4023 11319711
-0.272725 -0.57618 1.3982 11188380
-0.273332 -0.581311 1.40131 11122587
-0.2732 -0.584878 1.40063 10464657
-0.273692 -0.589788 1.40315 9938060
-0.273259 -0.592702 1.40093 8819581
-0.273622 -0.597344 1.40279 7504236
-0.273282 -0.600452 1.40105 6451803
-0.273615 -0.605036 1.40276 7504230
-0.272823 -0.607127 1.3987 13556677
-0.2733 -0.612038 1.40114 14015185
-0.27224 -0.613498 1.39571 461839
-0.272786 -0.618571 1.39851 1317407
-0.272886 -0.622642 1.39902 661787
-0.27597 -0.633564 1.41483 794153
-0.275427 -0.636196 1.41205 2045509
-0.274241 -0.637321 1.40597 1192517
-0.273221 -0.638798 1.40074 1323848
-0.273456 -0.6432 1.40195 1585997
-0.274451 -0.649405 1.40704 1520199
-0.274455 -0.653281 1.40707 1518663
-0.274955 -0.658344 1.40963 202012
-0.274885 -0.662047 1.40927 792347
-0.279874 -0.678006 1.43485 661269
-0.546502 -1.33162 2.80179 463890
-0.549087 -1.34565 2.81503 398101
-0.549117 -1.35346 2.81519 267799
-0.54272 -1.34533 2.78239 860460
-0.282547 -0.708356 1.44855 0
-0.276659 -0.697493 1.41837 0
-0.275913 -0.699499 1.41454 0
-0.2707 -0.690095 1.38781 0
-0.270357 -0.693029 1.38606 0
-0.269244 -0.693968 1.38035 0
-0.269705 -0.698954 1.38271 0
-0.270919 -0.705916 1.38894 0
-0.26992 -0.707115 1.38382 0
-0.267958 -0.705749 1.37376 0
-0.26764 -0.70868 1.37212 0
-0.269766 -0.71811 1.38303 0
-0.269157 -0.720279 1.3799 0
-0.267859 -0.72058 1.37325 0
-0.262937 -0.711041 1.34801 0
-0.267403 -0.726885 1.37091 0
-0.445492 -1.22981 2.28393 0
-0.450361 -1.24959 2.30889 0
-0.446758 -1.24589 2.29042 0
-0.448382 -1.25673 2.29875 0
-0.450065 -1.26779 2.30738 0
-0.440126 -1.24599 2.25642 0
-0.432313 -1.22996 2.21637 0
-0.431897 -1.23486 2.21423 0
-0.430774 -1.23772 2.20848 0
-0.426444 -1.23128 2.18628 0
-0.422813 -1.22675 2.16766 0
-0.420106 -1.22482 2.15378 0
-0.417741 -1.2238 2.14166 0
-0.421307 -1.24018 2.15994 0
-0.40732 -1.21049 2.08823 0
-0.505115 1.52978 2.6266 0
-0.189934 0.116674 0.987657 7171690
-0.368496 -0.447459 1.91618 16383993
-0.367736 -0.45179 1.91223 16580351
-0.365544 -0.454318 1.90083 16121595
-0.34382 -0.437142 1.78786 15925220
-0.329909 -0.424168 1.71553 16449527
-0.326087 -0.423913 1.69565 16711670
-0.324457 -0.426429 1.68718 16515061
-0.323704 -0.430064 1.68326 16515063
-0.322736 -0.433388 1.67822 16515065
-0.322352 -0.437478 1.67623 16383998
-0.321014 -0.440248 1.66927 16449535
-0.320246 -0.44377 1.66528 16580350
-0.318765 -0.446272 1.65758 16580603
-0.318269 -0.450124 1.655 16711677
-0.317029 -0.452898 1.64855 16711677
-0.31664 -0.456866 1.64653 16777211
-0.315554 -0.459807 1.64088 16580603
-0.314831 -0.463251 1.63712 16711675
-0.312796 -0.464725 1.62654 16711675
-0.307075 -0.460612 1.59679 16580605
-0.295329 -0.447212 1.53571 16580350
-0.289613 -0.442694 1.50599 16711422
-0.287005 -0.442808 1.49243 16711422
-0.285731 -0.444925 1.4858 16580350
-0.282897 -0.444553 1.47107 16513791
-0.281479 -0.446345 1.46369 11516622
-0.280617 -0.448988 1.45921 8231332
-0.281466 -0.454367 1.46363 1453606
-0.282567 -0.460181 1.46935 5926234
-0.283786 -0.466221 1.47569 13425606
-0.281881 -0.467118 1.46578 16777202
-0.278998 -0.466325 1.45079 5791309
-0.276353 -0.465852 1.43703 5858641
-0.275372 -0.468132 1.43193 12109746
-0.274917 -0.471286 1.42957 13030333
-0.274808 -0.475025 1.429 13359043
-0.274141 -0.477789 1.42553 12306610
-0.273876 -0.48124 1.42416 11846314
-0.273577 -0.484622 1.4226 11912361
-0.273497 -0.488387 1.42218 11648931
-0.273089 -0.49156 1.42006 11320477
-0.273278 -0.495805 1.42105 11057305
-0.272731 -0.498708 1.4182 10991512
-0.272775 -0.502685 1.41843 10991255
-0.27233 -0.505755 1.41611 10727313
-0.27262 -0.510189 1.41762 10858899
-0.272211 -0.513313 1.4155 10924692
-0.272299 -0.517368 1.41595 10924692
-0.272045 -0.520772 1.41463 10924692
-0.272213 -0.524983 1.41551 11122073
-0.271534 -0.527552 1.41198 10662293
-0.271511 -0.531385 1.41185 10925465
-0.271155 -0.534562 1.41 10990746
-0.271504 -0.53913 1.41182 11056794
-0.270869 -0.541738 1.40852 11122587
-0.270959 -0.545788 1.40899 10859672
-0.270459 -0.548645 1.40639 11056794
-0.270697 -0.552995 1.40762 11451038
-0.269959 -0.555344 1.40379 11253918
-0.270237 -0.559776 1.40523 10991259
-0.269702 -0.562521 1.40245 11319711
-0.270448 -0.567941 1.40633 11253918
-0.269866 -0.570574 1.4033 11582369
-0.270174 -0.575084 1.4049 11056794
-0.269074 -0.576588 1.39919 11385245
-0.269403 -0.58114 1.40089 11056794
-0.269093 -0.584316 1.39928 10727829
-0.269597 -0.589262 1.4019 10266255
-0.269473 -0.592842 1.40126 9082241
-0.26981 -0.597438 1.40301 7043685
-0.269453 -0.600495 1.40116 6715234
-0.269562 -0.60459 1.40172 7372390
-0.268715 -0.606529 1.39732 13228482
-0.269296 -0.611686 1.40034 14409175
-0.268209 -0.61305 1.39469 198920
-0.268891 -0.618449 1.39823 858140
-0.268345 -0.621028 1.3954 727066
-0.270617 -0.630152 1.40721 1056812
-0.270446 -0.633617 1.40632 2045509
-0.270686 -0.638046 1.40757 1323848
-0.269771 -0.639744 1.40281 1455434
-0.269936 -0.643991 1.40367 1520976
-0.270438 -0.64905 1.40628 1258310
-0.271959 -0.656587 1.41419 1123118
-0.272242 -0.66116 1.41566 727581
-0.272512 -0.665708 1.41706 792855
-0.540655 -1.33619 2.8114 398101
-0.541834 -1.34684 2.81754 529687
-0.538835 -1.34709 2.80194 332822
-0.535672 -1.34683 2.78549 1058093
-0.275423 -0.704295 1.4322 0
-0.266543 -0.685398 1.38603 0
-0.267366 -0.691333 1.39031 0
-0.264948 -0.688865 1.37773 0
-0.266134 -0.695751 1.3839 0
-0.267494 -0.703128 1.39097 0
-0.270483 -0.714847 1.40651 0
-0.267603 -0.711058 1.39153 0
-0.266573 -0.712132 1.38618 0
-0.265277 -0.712459 1.37944 0
-0.265817 -0.717705 1.38225 0
-0.266473 -0.723284 1.38566 0
-0.265941 -0.72564 1.38289 0
-0.26472 -0.726089 1.37654 0
-0.261603 -0.721277 1.36034 0
-0.268501 -0.744131 1.3962 0
-0.441346 -1.24207 2.295 0
-0.440804 -1.24685 2.29218 0
-0.438089 -1.24542 2.27806 0
-0.43995 -1.257 2.28774 0
-0.431761 -1.23977 2.24516 0
-0.42834 -1.23607 2.22737 0
-0.426053 -1.23555 2.21548 0
-0.426599 -1.24323 2.21831 0
-0.424496 -1.24317 2.20738 0
-0.417829 -1.22961 2.17271 0
-0.407044 -1.20369 2.11663 0
-0.412187 -1.22478 2.14337 0
-0.408549 -1.21981 2.12445 0
-0.407929 -1.22379 2.12123 0
-0.406822 -1.22628 2.11548 0
-0.363392 -0.447656 1.91702 14151097
-0.362547 -0.45187 1.91257 16646143
-0.360597 -0.454665 1.90228 16383740
-0.352519 -0.44959 1.85967 16580602
-0.3247 -0.423522 1.71291 16711675
-0.321162 -0.423561 1.69424 16711674
-0.319487 -0.425983 1.68541 16580600
-0.318901 -0.429823 1.68232 16711675
-0.318073 -0.433317 1.67795 16449531
-0.317708 -0.437423 1.67602 16580605
-0.316525 -0.440382 1.66978 16449534
-0.315833 -0.443998 1.66613 16580605
-0.314283 -0.446372 1.65795 16580350
-0.313766 -0.450186 1.65523 16711422
-0.312512 -0.452916 1.64862 16711677
-0.312173 -0.456949 1.64683 16711675
-0.310974 -0.4597 1.6405 16777211
-0.310478 -0.463467 1.63788 16776954
-0.30898 -0.46571 1.62998 16711677
-0.304702 -0.463678 1.60742 16711422
-0.292585 -0.449479 1.54349 16711422
-0.285887 -0.443333 1.50816 16711422
-0.283111 -0.44313 1.49351 16580350
-0.281702 -0.445008 1.48608 16711422
-0.27875 -0.444384 1.47051 16185855
-0.277302 -0.446094 1.46287 10861527
-0.276398 -0.448646 1.4581 8822951
-0.277255 -0.454055 1.46262 4282705
-0.27825 -0.459717 1.46787 5993052
-0.27935 -0.465583 1.47367 13557706
-0.277356 -0.466279 1.46315 16515056
-0.274629 -0.465674 1.44877 6186067
-0.272049 -0.465244 1.43516 6384985
-0.271293 -0.467882 1.43117 11846829
-0.27091 -0.471147 1.42915 13688263
-0.270853 -0.474974 1.42885 13293250
-0.270078 -0.477529 1.42476 12503989
-0.26985 -0.481036 1.42355 12109229
-0.269776 -0.484816 1.42317 11385504
-0.269773 -0.48872 1.42315 11122073
-0.26943 -0.492003 1.42134 10925208
-0.269426 -0.495899 1.42132 10991255
-0.269126 -0.499249 1.41974 10728083
-0.269099 -0.503097 1.41959 10728083
-0.268612 -0.506081 1.41703 10793106
-0.268813 -0.510354 1.41808 10793106
-0.268618 -0.513879 1.41706 11121557
-0.268812 -0.518145 1.41808 11253143
-0.268436 -0.521311 1.4161 11515801
-0.268496 -0.525318 1.41641 11319450
-0.2678 -0.527839 1.41274 11319966
-0.267599 -0.531321 1.41168 11122844
-0.267009 -0.534019 1.40857 11319711
-0.267262 -0.538397 1.4099 11188380
-0.266789 -0.541311 1.40741 11451552
-0.266771 -0.545142 1.40732 11517599
-0.26634 -0.54812 1.40504 11582624
-0.266482 -0.552274 1.40579 11254430
-0.265984 -0.555096 1.40316 11188638
-0.266502 -0.56004 1.40589 11253918
-0.266128 -0.563111 1.40392 11319711
-0.266639 -0.568056 1.40662 11516576
-0.265739 -0.569991 1.40187 11253920
-0.266206 -0.574851 1.40433 11319711
-0.265505 -0.577184 1.40063 11319966
-0.265743 -0.581555 1.40189 11254173
-0.265171 -0.584144 1.39887 10464402
-0.265495 -0.588706 1.40058 9674118
-0.265273 -0.592059 1.39941 8687483
-0.265332 -0.596036 1.39972 7240294
-0.264985 -0.599096 1.39789 6518110
-0.265412 -0.603908 1.40014 7635816
-0.265198 -0.607264 1.39901 13949894
-0.265669 -0.612195 1.4015 14869726
-0.264739 -0.613888 1.3966 198920
-0.265158 -0.618702 1.3988 1185823
-0.264678 -0.621419 1.39627 793374
-0.266706 -0.630043 1.40697 991020
-0.26716 -0.63499 1.40937 1979716
-0.26814 -0.641206 1.41454 1258055
-0.266412 -0.640933 1.40542 1324361
-0.266233 -0.64436 1.40447 1389643
-0.26579 -0.64714 1.40214 1062986
-0.26697 -0.653883 1.40836 924196
-0.267473 -0.658992 1.41102 726809
-0.268232 -0.664748 1.41502 727319
-0.530218 -1.32939 2.79709 595476
-0.534758 -1.34852 2.82104 661014
-0.531792 -1.34875 2.80539 530716
-0.523735 -1.3359 2.76289 926762
-0.292063 -0.753438 1.54074 0
-0.279806 -0.725874 1.47608 0
-0.271864 -0.709212 1.43418 0
-0.266267 -0.698467 1.40465 0
-0.263835 -0.695913 1.39183 0
-0.262812 -0.697024 1.38643 0
-0.265862 -0.708966 1.40252 0
-0.264542 -0.70928 1.39556 0
-0.264625 -0.713338 1.39599 0
-0.263873 -0.715133 1.39202 0
-0.260297 -0.709214 1.37316 0
-0.25921 -0.710011 1.36743 0
-0.260269 -0.716682 1.37301 0
-0.262971 -0.727934 1.38727 0
-0.261346 -0.727223 1.37869 0
-0.257712 -0.720847 1.35953 0
-0.258521 -0.726855 1.36379 0
-0.455762 -1.29463 2.40431 0
-0.439892 -1.25592 2.32059 0
-0.433873 -1.24503 2.28884 0
-0.434792 -1.25397 2.29368 0
-0.428541 -1.24215 2.26071 0
-0.431202 -1.25611 2.27475 0
-0.426781 -1.24942 2.25142 0
-0.416547 -1.22549 2.19744 0
-0.414143 -1.22442 2.18476 0
-0.419426 -1.24612 2.21262 0
-0.412838 -1.23253 2.17787 0
-0.402319 -1.20696 2.12238 0
-0.394245 -1.18845 2.07978 0
-0.399072 -1.20878 2.10525 0
-0.399112 -1.21469 2.10546 0
-0.247483 0.560476 1.32476 4472640
-0.169223 0.0821228 0.90584 6974311
-0.358667 -0.448333 1.91992 14678715
-0.357504 -0.452138 1.9137 16580603
-0.355291 -0.454564 1.90185 16580603
-0.346382 -0.448259 1.85416 16580605
-0.329518 -0.431281 1.76389 16580605
-0.320442 -0.424114 1.71531 16711677
-0.316905 -0.424093 1.69637 16711675
-0.31494 -0.426095 1.68585 16711677
-0.314424 -0.430021 1.68309 16711675
-0.313693 -0.433634 1.67918 16580605
-0.313264 -0.437648 1.67688 16711422
-0.312 -0.440471 1.67012 16776958
-0.311416 -0.444226 1.66699 16580351
-0.309947 -0.446689 1.65913 16711167
-0.309228 -0.4502 1.65528 16711422
-0.307747 -0.45257 1.64735 16711422
-0.307426 -0.456618 1.64563 16776957
-0.306398 -0.459597 1.64013 16711675
-0.306044 -0.463567 1.63824 16711675
-0.304855 -0.466248 1.63187 16711422
-0.301165 -0.465034 1.61212 16580350
-0.289519 -0.451309 1.54978 16711422
-0.282497 -0.444517 1.51219 16580350
-0.279245 -0.443506 1.49478 16580350
-0.277694 -0.445127 1.48648 16711422
-0.274553 -0.444129 1.46966 15529215
-0.273375 -0.446245 1.46336 8364750
-0.272349 -0.448575 1.45787 8494246
-0.273104 -0.453835 1.46191 6323827
-0.27375 -0.458934 1.46537 4414020
-0.274795 -0.464728 1.47096 12833469
-0.272949 -0.465619 1.46108 16515056
-0.270434 -0.465306 1.44762 6187095
-0.268401 -0.465755 1.43674 5529678
-0.267451 -0.468039 1.43165 12174769
-0.266947 -0.471083 1.42895 13556422
-0.266618 -0.474424 1.42719 13029821
-0.266066 -0.477353 1.42423 12437939
-0.266142 -0.481403 1.42464 11451297
-0.265863 -0.484809 1.42315 10990746
-0.265812 -0.488626 1.42288 11187096
-0.265253 -0.491499 1.41988 11056280
-0.265464 -0.495793 1.42101 10924692
-0.265181 -0.499163 1.4195 10596497
-0.265067 -0.502848 1.41889 10793876
-0.264252 -0.505187 1.41452 10990485
-0.264511 -0.509573 1.41591 11385245
-0.264325 -0.513101 1.41491 11187096
-0.264761 -0.517841 1.41725 11449754
-0.264192 -0.520613 1.4142 11778458
-0.264196 -0.524507 1.41423 11384729
-0.263694 -0.527388 1.41154 11188637
-0.263713 -0.531305 1.41164 11451038
-0.263174 -0.534088 1.40875 11647647
-0.263241 -0.538096 1.40911 11647647
-0.262874 -0.541211 1.40715 11451036
-0.262986 -0.54531 1.40775 11320220
-0.262599 -0.548369 1.40568 11582624
-0.262572 -0.552174 1.40553 11319966
-0.262013 -0.554852 1.40254 11451297
-0.262425 -0.559583 1.40475 11385504
-0.262142 -0.562834 1.40323 11385504
-0.262748 -0.568 1.40648 11713701
-0.261754 -0.5697 1.40116 11056541
-0.262094 -0.574293 1.40297 11253918
-0.261384 -0.576582 1.39917 11319966
-0.261656 -0.58103 1.40063 10859673
-0.26111 -0.583657 1.39771 10596501
-0.261469 -0.588305 1.39963 9543047
-0.261218 -0.591582 1.39829 8358518
-0.261194 -0.59537 1.39816 6582364
-0.26102 -0.598811 1.39723 6715742
-0.261699 -0.604217 1.40086 11977641
-0.261773 -0.608237 1.40125 13817800
-0.262117 -0.612892 1.4031 14277589
-0.261172 -0.614522 1.39804 264713
-0.261618 -0.61942 1.40043 988703
-0.261033 -0.621872 1.39729 924192
-0.262579 -0.629418 1.40557 925998
-0.26272 -0.633619 1.40633 1651521
-0.264242 -0.641176 1.41447 1389641
-0.263916 -0.644265 1.41272 1126982
-0.262754 -0.645293 1.40651 1192521
-0.261705 -0.646565 1.40089 1259335
-0.26179 -0.650625 1.40135 1318183
-0.261957 -0.654892 1.40224 857626
-0.263373 -0.662307 1.40982 923927
-0.522899 -1.33032 2.79905 857879
-0.527886 -1.35077 2.82574 594453
-0.516303 -1.33631 2.76374 1781044
-0.281364 -0.736512 1.50613 0
-0.272774 -0.718038 1.46014 0
-0.264083 -0.699043 1.41362 0
-0.261589 -0.696288 1.40027 0
-0.262683 -0.703062 1.40612 0
-0.261934 -0.70491 1.40212 0
-0.260944 -0.706084 1.39682 0
-0.261658 -0.711864 1.40064 0
-0.262729 -0.71864 1.40637 0
-0.263849 -0.725586 1.41237 0
-0.260071 -0.71902 1.39215 0
-0.257329 -0.715222 1.37747 0
-0.257842 -0.720441 1.38021 0
-0.257668 -0.723743 1.37928 0
-0.256713 -0.724836 1.37417 0
-0.256599 -0.728288 1.37356 0
-0.256348 -0.731346 1.37222 0
-0.4262 -1.22846 2.28143 0
-0.431908 -1.25126 2.31198 0
-0.426352 -1.24144 2.28224 0
-0.425197 -1.24433 2.27605 0
-0.426645 -1.25484 2.28381 0
-0.428288 -1.26597 2.2926 0
-0.410683 -1.21997 2.19836 0
-0.416302 -1.24278 2.22844 0
-0.412102 -1.2363 2.20596 0
-0.412823 -1.24454 2.20982 0
-0.412028 -1.2482 2.20556 0
-0.402033 -1.22384 2.15206 0
-0.396356 -1.21238 2.12167 0
-0.394792 -1.2134 2.1133 0
-0.390775 -1.20681 2.0918 0
-0.210839 0.667131 1.14545 0
-0.43007 1.25811 2.3365 4998219
-0.802717 2.13259 4.36103 4472132
-0.252613 0.271464 1.3724 2436651
-0.352791 -0.442305 1.91666 14809291
-0.353836 -0.448896 1.92233 14940363
-0.35245 -0.452398 1.9148 16580605
-0.349855 -0.45429 1.90071 16711677
-0.341096 -0.448007 1.85312 16776957
-0.323829 -0.430161 1.75931 16776957
-0.315956 -0.424419 1.71654 16711677
-0.312404 -0.424309 1.69724 16711677
-0.310314 -0.426103 1.68589 16711422
-0.309739 -0.429936 1.68276 16711422
-0.309046 -0.433587 1.679 16711422
-0.308753 -0.437784 1.6774 16711422
-0.307531 -0.440642 1.67077 16645375
-0.306903 -0.444322 1.66735 16777215
-0.305431 -0.44675 1.65936 16514557
-0.304862 -0.450468 1.65627 16580350
-0.303385 -0.452814 1.64824 16580350
-0.302945 -0.456679 1.64585 16646143
-0.301817 -0.459482 1.63972 16776701
-0.301486 -0.463478 1.63792 16646143
-0.300539 -0.466508 1.63278 16580351
-0.297681 -0.466515 1.61725 16580351
-0.287753 -0.455251 1.56332 16449279
-0.27959 -0.446509 1.51896 16449534
-0.275709 -0.444426 1.49788 16449279
-0.273805 -0.445445 1.48754 16449279
-0.270545 -0.444178 1.46982 11197439
-0.269513 -0.446507 1.46422 4684733
-0.268365 -0.44861 1.45798 6982812
-0.268879 -0.453482 1.46077 8231055
-0.269395 -0.458373 1.46358 2308130
-0.270659 -0.464564 1.47045 12043183
-0.269241 -0.466149 1.46274 16646132
-0.266641 -0.465627 1.44862 5595471
-0.264429 -0.46571 1.4366 5858643
-0.263582 -0.468152 1.432 12240562
-0.262839 -0.470757 1.42796 13622215
-0.262861 -0.474718 1.42808 13030078
-0.262209 -0.477455 1.42454 11977643
-0.262382 -0.481686 1.42548 11122332
-0.261832 -0.484584 1.42249 10858901
-0.261826 -0.488481 1.42246 11055510
-0.261258 -0.491321 1.41937 10858131
-0.261319 -0.495336 1.4197 10332557
-0.261016 -0.498657 1.41806 10399118
-0.261129 -0.50277 1.41867 10793622
-0.260449 -0.505348 1.41497 11056794
-0.260532 -0.509399 1.41543 11253659
-0.260312 -0.512853 1.41423 11581854
-0.260809 -0.517725 1.41693 11778719
-0.260414 -0.520828 1.41479 11910559
-0.260386 -0.524658 1.41463 11714208
-0.259919 -0.527598 1.4121 11714724
-0.26 -0.531642 1.41254 11780003
-0.259304 -0.534089 1.40876 11713694
-0.259284 -0.537917 1.40865 11845280
-0.258988 -0.54117 1.40704 11582622
-0.259254 -0.545594 1.40848 11451552
-0.258798 -0.548496 1.406 11516831
-0.258787 -0.552337 1.40595 11319966
-0.258247 -0.555038 1.40301 11319711
-0.258567 -0.559584 1.40475 11517090
-0.258097 -0.56242 1.4022 11385506
-0.258524 -0.567209 1.40452 11318943
-0.25766 -0.56916 1.39983 11253150
-0.257939 -0.573626 1.40134 11253150
-0.257642 -0.57681 1.39973 10727574
-0.257796 -0.581003 1.40056 10596501
-0.2574 -0.583951 1.39841 9938317
-0.257475 -0.587966 1.39882 9411718
-0.257135 -0.591026 1.39697 7964017
-0.256832 -0.594163 1.39532 6648157
-0.256748 -0.597802 1.39487 6517335
-0.257752 -0.603985 1.40032 12043947
-0.258199 -0.608888 1.40275 14015179
-0.258571 -0.613624 1.40477 8883077
-0.257562 -0.615074 1.39929 1382432
-0.257699 -0.619248 1.40004 857631
-0.257334 -0.62221 1.39805 530463
-0.258864 -0.629774 1.40637 794928
-0.257982 -0.631477 1.40157 1914693
-0.260242 -0.640894 1.41385 1258310
-0.260648 -0.645785 1.41606 1389896
-0.260449 -0.649178 1.41497 1258057
-0.257262 -0.645075 1.39766 1127496
-0.257331 -0.64909 1.39804 1122600
-0.256839 -0.65168 1.39536 792604
-0.257447 -0.657067 1.39867 1120277
-0.527764 -1.37061 2.86725 6581356
-0.51411 -1.34282 2.79307 595995
-0.269447 -0.715844 1.46386 0
-0.257159 -0.690875 1.3971 0
-0.256572 -0.693128 1.39392 0
-0.258457 -0.702077 1.40415 0
-0.259057 -0.707575 1.40742 0
-0.260016 -0.714075 1.41263 0
-0.257443 -0.710851 1.39865 0
-0.259651 -0.720823 1.41064 0
-0.259829 -0.725194 1.41161 0
-0.258686 -0.725864 1.4054 0
-0.256676 -0.724055 1.39448 0
-0.253673 -0.71937 1.37816 0
-0.254536 -0.725618 1.38285 0
-0.252525 -0.723654 1.37193 0
-0.250952 -0.722891 1.36338 0
-0.249706 -0.723028 1.35661 0
-0.442568 -1.28807 2.4044 0
-0.425607 -1.24506 2.31225 0
-0.418518 -1.23057 2.27374 0
-0.419995 -1.24118 2.28176 0
-0.4225 -1.25489 2.29537 0
-0.420218 -1.25438 2.28297 0
-0.42085 -1.26255 2.28641 0
-0.411592 -1.24092 2.23611 0
-0.403502 -1.22255 2.19216 0
-0.404442 -1.23143 2.19726 0
-0.410007 -1.2545 2.2275 0
-0.410462 -1.26202 2.22997 0
-0.396446 -1.22484 2.15383 0
-0.397818 -1.23502 2.16128 0
-0.397147 -1.23886 2.15763 0
-0.385633 -1.2087 2.09508 0
-0.3693 -1.16302 2.00635 0
-0.348577 -0.443644 1.92246 16383988
-0.349237 -0.449774 1.92609 16449521
-0.347566 -0.452889 1.91688 16449534
-0.344434 -0.454027 1.89961 16711677
-0.334229 -0.445638 1.84332 16711677
-0.318761 -0.429844 1.75802 16711677
-0.311657 -0.424986 1.71883 16711677
-0.308388 -0.425202 1.70081 16711677
-0.306004 -0.426551 1.68766 16580350
-0.30536 -0.43028 1.68411 16580351
-0.304634 -0.433873 1.6801 16449534
-0.304223 -0.437897 1.67784 16449279
-0.303142 -0.440934 1.67188 16449534
-0.302282 -0.444263 1.66713 16580351
-0.301003 -0.446944 1.66008 16710911
-0.300358 -0.450537 1.65652 16383743
-0.299158 -0.453269 1.6499 16449534
-0.298666 -0.457049 1.64719 16776959
-0.297531 -0.459821 1.64093 15923708
-0.297137 -0.463713 1.63875 15464698
-0.296321 -0.466931 1.63426 16186879
-0.294227 -0.468089 1.62271 15137785
-0.286425 -0.460016 1.57968 16252157
-0.277006 -0.449086 1.52773 16449534
-0.27182 -0.444797 1.49913 16449279
-0.269557 -0.445177 1.48665 14679295
-0.266552 -0.444253 1.47008 10279679
-0.265349 -0.446269 1.46344 5540561
-0.264218 -0.44837 1.4572 6260894
-0.264606 -0.453038 1.45934 8627096
-0.265065 -0.457839 1.46187 1781275
-0.266444 -0.464259 1.46948 12635310
-0.265152 -0.466025 1.46235 16580592
-0.26279 -0.465855 1.44933 6713952
-0.260737 -0.466166 1.438 5793364
-0.259927 -0.468656 1.43354 12110260
-0.259161 -0.471202 1.42931 13622215
-0.259063 -0.474949 1.42877 12898747
-0.258385 -0.47762 1.42503 11846057
-0.25843 -0.48162 1.42528 11319711
-0.257958 -0.484648 1.42268 11122073
-0.258077 -0.488783 1.42333 10660752
-0.257626 -0.491831 1.42084 10858132
-0.257514 -0.495519 1.42023 10990232
-0.257099 -0.498616 1.41794 11187866
-0.257216 -0.502741 1.41859 11385504
-0.256608 -0.50544 1.41523 11451552
-0.256651 -0.509414 1.41547 11648931
-0.25633 -0.512661 1.4137 11714210
-0.256757 -0.517405 1.41606 12173477
-0.256235 -0.520236 1.41318 12042405
-0.256153 -0.523949 1.41272 11648417
-0.255677 -0.526849 1.4101 11714724
-0.25602 -0.531436 1.41199 11714208
-0.255606 -0.534449 1.40971 12174500
-0.255791 -0.538711 1.41073 11845280
-0.255228 -0.541394 1.40762 11648417
-0.255407 -0.545642 1.40861 11319711
-0.254768 -0.548136 1.40508 11517345
-0.254841 -0.552156 1.40549 11583138
-0.254166 -0.554543 1.40176 11188638
-0.254393 -0.558893 1.40301 11056794
-0.254066 -0.562025 1.40121 10990746
-0.25466 -0.567198 1.40449 10859160
-0.254089 -0.569776 1.40134 10727576
-0.254072 -0.573587 1.40125 10595990
-0.253603 -0.57637 1.39866 10267282
-0.253662 -0.580348 1.39898 10069648
-0.253187 -0.583098 1.39637 9938062
-0.253512 -0.587688 1.39816 9016705
-0.253501 -0.591503 1.3981 7635052
-0.253754 -0.595938 1.39949 6779743
-0.253225 -0.598531 1.39657 6779994
-0.253927 -0.604038 1.40045 11648935
-0.25436 -0.608922 1.40283 13818316
-0.254979 -0.614267 1.40625 8094331
-0.253788 -0.615243 1.39968 1579811
-0.253714 -0.618909 1.39927 660765
-0.2535 -0.622227 1.39809 399395
-0.2555 -0.631007 1.40912 1848384
-0.254225 -0.63171 1.40209 1914696
-0.254582 -0.636454 1.40406 2046796
-0.256105 -0.644142 1.41246 1521739
-0.25654 -0.649125 1.41486 1389896
-0.254836 -0.648673 1.40546 1586506
-0.254638 -0.652028 1.40437 266262
-0.253721 -0.653524 1.39931 265742
-0.253762 -0.657474 1.39954 6580069
-0.251376 -0.6551 1.38638 7699064
-0.254354 -0.693692 1.4028 0
-0.252063 -0.691263 1.39016 0
-0.25221 -0.695487 1.39097 0
-0.253901 -0.703997 1.4003 0
-0.253578 -0.706945 1.39852 0
-0.251524 -0.705031 1.3872 0
-0.251132 -0.707737 1.38503 0
-0.253338 -0.71779 1.3972 0
-0.254923 -0.726145 1.40594 0
-0.25195 -0.721493 1.38954 0
-0.25171 -0.724618 1.38822 0
-0.25271 -0.731326 1.39373 0
-0.253431 -0.737254 1.39771 0
-0.249554 -0.729757 1.37633 0
-0.247873 -0.728597 1.36706 0
-0.42078 -1.24959 2.32066 0
-0.419826 -1.25312 2.3154 0
-0.417839 -1.25352 2.30445 0
-0.413767 -1.24757 2.28199 0
-0.418422 -1.26795 2.30766 0
-0.409894 -1.24831 2.26063 0
-0.405812 -1.24203 2.23812 0
-0.401759 -1.23571 2.21576 0
-0.392319 -1.21262 2.1637 0
-0.397639 -1.24111 2.19304 0
-0.397604 -1.24703 2.19284 0
-0.388884 -1.22557 2.14476 0
-0.391124 -1.23856 2.15711 0
-0.377667 -1.20167 2.08289 0
-0.343507 -0.443916 1.92364 16580603
-0.343697 -0.449449 1.9247 16449531
-0.342103 -0.452628 1.91578 16449533
-0.338496 -0.453064 1.89558 16580605
-0.325924 -0.441251 1.82518 16711167
-0.31346 -0.429199 1.75538 16776701
-0.307226 -0.42539 1.72047 16711677
-0.303823 -0.425352 1.70141 16580350
-0.301149 -0.426242 1.68644 16580350
-0.300676 -0.430199 1.68379 16580351
-0.299904 -0.433708 1.67946 15006972
-0.299628 -0.437918 1.67792 14350844
-0.298671 -0.441114 1.67256 15727103
-0.297858 -0.444495 1.668 15003894
-0.296353 -0.446809 1.65958 16252415
-0.295743 -0.45044 1.65616 16383743
-0.294707 -0.453396 1.65036 16383998
-0.294445 -0.457522 1.64889 16514815
-0.29312 -0.459972 1.64147 11787226
-0.292658 -0.463751 1.63889 13103086
-0.291759 -0.466814 1.63385 15532031
-0.29033 -0.468994 1.62585 14548217
-0.284574 -0.464074 1.59361 16121341
-0.274382 -0.451674 1.53654 16449534
-0.268041 -0.44536 1.50103 16580351
-0.265558 -0.44532 1.48712 15138559
-0.262517 -0.44426 1.4701 9487850
-0.260908 -0.445551 1.46108 4879541
-0.259757 -0.447581 1.45464 7179427
-0.260224 -0.452389 1.45725 8560025
-0.260837 -0.457468 1.46069 3031595
-0.262197 -0.463887 1.4683 12570805
-0.261307 -0.466332 1.46332 16318448
-0.258979 -0.466162 1.45028 5529676
-0.256947 -0.466457 1.4389 5728085
-0.255889 -0.468473 1.43298 11781809
-0.25535 -0.471415 1.42996 13424836
-0.255288 -0.475228 1.42961 12701368
-0.254555 -0.477781 1.42551 11714471
-0.254404 -0.48141 1.42466 10859160
-0.253976 -0.484507 1.42226 10727315
-0.254193 -0.488834 1.42348 10792592
-0.25382 -0.49202 1.42139 11252890
-0.253579 -0.495454 1.42004 12042406
-0.253023 -0.498261 1.41693 12042920
-0.253087 -0.502281 1.41729 11779748
-0.25273 -0.50546 1.41529 11780517
-0.252885 -0.50966 1.41615 11846310
-0.252691 -0.513156 1.41507 11845794
-0.252973 -0.517621 1.41665 12108198
-0.252466 -0.520468 1.41381 11911589
-0.252214 -0.52383 1.4124 11451297
-0.25183 -0.526905 1.41025 11386016
-0.252149 -0.531452 1.41203 11648415
-0.251816 -0.534626 1.41017 11713949
-0.252037 -0.538972 1.41141 11648415
-0.251505 -0.541703 1.40843 11385759
-0.251612 -0.545805 1.40903 11320224
-0.250889 -0.548097 1.40498 10991259
-0.250873 -0.55192 1.40489 11122844
-0.250227 -0.554349 1.40127 11057051
-0.250458 -0.558714 1.40257 10925465
-0.2503 -0.562213 1.40168 11056794
-0.250668 -0.566896 1.40374 10530195
-0.250054 -0.569354 1.4003 10398611
-0.250057 -0.573207 1.40032 10530197
-0.250045 -0.577027 1.40025 10201489
