# .PCD v.7 - Point Cloud Data file format
VERSION .7
FIELDS x y z rgb
SIZE 4 4 4 4
TYPE F F F F
COUNT 1 1 1 1
WIDTH 1392
HEIGHT 1
VIEWPOINT 0 0 0 1 0 0 0
POINTS 1392
DATA ascii
-2.64278 -1.36581 4.0419 2.947e-39
-2.67675 -1.39461 4.09385 3.22358e-39
-2.66719 -1.40084 4.07924 3.03991e-39
-2.66934 -1.41318 4.08252 3.03991e-39
-2.66062 -1.41974 4.06918 3.40797e-39
-2.6558 -1.43949 4.06181 3.77676e-39
-2.64691 -1.44579 4.04821 4.05226e-39
-2.63142 -1.44839 4.02453 3.96007e-39
-2.63434 -1.46106 4.02899 3.77532e-39
-2.68537 -1.50065 4.10704 3.59093e-39
-2.6599 -1.49759 4.06808 3.77532e-39
-2.65037 -1.50336 4.0535 3.86823e-39
-2.66515 -1.52294 4.0761 4.14482e-39
-2.64618 -1.52322 4.0471 4.14481e-39
-2.60373 -1.50973 3.98218 4.78838e-39
-2.60244 -1.51991 3.9802 5.34083e-39
-2.65201 -1.56001 4.05602 5.61669e-39
-2.63467 -1.56088 4.0295 5.89328e-39
-2.62049 -1.56348 4.00781 5.98583e-39
-2.61696 -1.57238 4.00241 6.17022e-39
-2.59709 -1.57135 3.97201 5.98512e-39
-2.62322 -1.63124 4.01198 3.31434e-39
-2.63853 -1.65185 4.0354 2.39383e-39
-2.63564 -1.67219 4.03097 1.56552e-39
-2.6741 -1.70783 4.08981 1.47332e-39
-2.64822 -1.70243 4.05022 1.47332e-39
-2.6273 -1.70002 4.01823 1.65771e-39
-2.62698 -1.71085 4.01773 1.38185e-39
-0.989675 -0.869084 1.51362 0
-0.916251 0.65336 1.40724 6.54373e-39
-2.2674 0.707963 3.48241 6.54517e-39
-2.03307 -0.223037 3.12252 7.74442e-39
-2.70361 -0.330821 4.15238 9.21776e-39
-2.74418 -0.358944 4.2147 9.58654e-39
-2.7598 -0.372631 4.23868 9.86275e-39
-2.72232 -0.379057 4.18112 8.20142e-39
-2.76077 -0.39606 4.24017 1.43771e-38
-2.76663 -0.408574 4.24917 2.19346e-38
-2.73426 -0.438404 4.19945 2.3225e-38
-2.73372 -0.461387 4.19862 2.3225e-38
-2.7215 -0.470807 4.17985 2.30402e-38
-2.71598 -0.481312 4.17137 2.20261e-38
-2.72861 -0.495065 4.19078 2.18417e-38
-2.74066 -0.508815 4.20929 2.22105e-38
-2.74959 -0.522074 4.223 2.27633e-38
-2.74511 -0.532806 4.21612 2.25807e-38
-2.74279 -0.543929 4.21256 2.32253e-38
-2.74235 -0.555412 4.21187 2.32246e-38
-2.71969 -0.5623 4.17708 2.28558e-38
-2.70902 -0.571523 4.16069 2.21175e-38
-2.71088 -0.60623 4.16354 2.18417e-38
-2.71983 -0.619707 4.17729 2.25792e-38
-2.70043 -0.626682 4.1475 2.22105e-38
-2.67905 -0.633024 4.11466 2.22105e-38
-2.66666 -0.641349 4.09564 2.21183e-38
-2.69677 -0.659969 4.14188 2.24871e-38
-2.71628 -0.676205 4.17184 2.26729e-38
-2.71711 -0.687875 4.17311 2.2764e-38
-2.70595 -0.696468 4.15597 2.21183e-38
-2.70073 -0.70652 4.14796 2.11956e-38
-2.70027 -0.717794 4.14725 2.15647e-38
-2.70215 -0.729693 4.15013 2.18417e-38
-2.71054 -0.743398 4.16303 2.23948e-38
-2.70493 -0.753271 4.1544 2.22105e-38
-2.71948 -0.768799 4.17676 2.21186e-38
-2.73646 -0.785144 4.20283 2.11963e-38
-2.70727 -0.788193 4.158 2.12881e-38
-2.70112 -0.7978 4.14856 2.16569e-38
-2.70255 -0.809624 4.15075 2.19339e-38
-2.69536 -0.818845 4.13972 2.13807e-38
-2.69633 -0.830516 4.1412 2.19339e-38
-2.70969 -0.846062 4.16171 2.25796e-38
-2.72903 -0.863618 4.19143 2.25792e-38
-2.69101 -0.862939 4.13302 2.23948e-38
-2.66307 -0.865216 4.09011 2.25792e-38
-2.675 -0.880381 4.10844 2.23956e-38
-2.7161 -0.905367 4.17157 2.2397e-38
-2.72948 -0.921345 4.19212 2.32282e-38
-2.73043 -0.933185 4.19357 2.35084e-38
-2.69946 -0.933991 4.14601 2.35092e-38
-2.68762 -0.941233 4.12782 2.35095e-38
-2.68577 -0.951918 4.12498 2.18489e-38
-2.69052 -0.964955 4.13228 1.94507e-38
-2.68894 -0.975735 4.12986 1.94482e-38
-2.69474 -0.989207 4.13875 1.99088e-38
-2.70766 -1.00538 4.1586 2.01867e-38
-2.70103 -1.01431 4.14842 2.04654e-38
-2.69679 -1.0241 4.1419 2.1204e-38
-2.66499 -1.02327 4.09307 2.21253e-38
-2.67741 -1.03933 4.11214 2.19402e-38
-2.65575 -1.04213 4.07888 2.14795e-38
-2.65772 -1.05412 4.0819 2.1755e-38
-2.65913 -1.0659 4.08406 2.03718e-38
-2.67552 -1.08376 4.10924 1.90807e-38
-2.63929 -1.08022 4.05359 1.79733e-38
-2.65407 -1.09747 4.0763 1.8341e-38
-2.64445 -1.10465 4.06152 1.46501e-38
-2.67746 -1.12973 4.11222 1.16076e-38
-2.68209 -1.143 4.11932 1.17931e-38
-2.65568 -1.14295 4.07876 1.13354e-38
-2.64905 -1.15127 4.06858 1.66849e-38
-2.65285 -1.16412 4.07442 1.88972e-38
-2.66038 -1.17865 4.08599 1.70569e-38
-2.6544 -1.1872 4.07681 1.34616e-38
-2.65176 -1.19721 4.07275 9.77091e-39
-2.67208 -1.21766 4.10395 1.78834e-38
-2.65903 -1.22293 4.08391 2.2768e-38
-2.64915 -1.22956 4.06874 1.67749e-38
-2.6489 -1.24062 4.06835 8.7553e-39
-2.64311 -1.24907 4.05946 3.40979e-39
-2.64403 -1.26065 4.06087 2.58039e-39
-2.67016 -1.28438 4.10101 1.75062e-39
-2.66324 -1.29229 4.09037 1.65807e-39
-2.61471 -1.27978 4.01585 1.8421e-39
-2.63125 -1.29897 4.04124 1.84246e-39
-2.64008 -1.31447 4.0548 2.21124e-39
-2.66258 -1.33691 4.08937 2.39598e-39
-2.68413 -1.35905 4.12246 2.48818e-39
-2.65704 -1.35655 4.08086 2.5793e-39
-2.63224 -1.355 4.04277 2.76369e-39
-2.63845 -1.36932 4.05231 2.67149e-39
-2.65559 -1.38942 4.07863 3.13211e-39
-2.66038 -1.41438 4.08598 3.3165e-39
-2.6556 -1.42304 4.07864 2.94808e-39
-2.6569 -1.43495 4.08064 3.40906e-39
-2.61386 -1.42274 4.01454 3.2243e-39
-2.62043 -1.43737 4.02463 3.40869e-39
-2.60885 -1.44203 4.00685 3.68348e-39
-2.67659 -1.49076 4.11088 3.68348e-39
-2.63529 -1.47887 4.04744 3.49909e-39
-2.63215 -1.48822 4.04263 3.2243e-39
-2.64978 -1.50937 4.06971 3.3165e-39
-2.67509 -1.53507 4.10858 3.86895e-39
-2.62805 -1.51917 4.03633 4.14481e-39
-2.61395 -1.52204 4.01467 4.3274e-39
-2.62149 -1.5375 4.02626 5.06496e-39
-2.6178 -1.54638 4.02058 5.52558e-39
-2.64567 -1.574 4.06339 5.98548e-39
-2.60334 -1.55981 3.99838 5.80181e-39
-2.59506 -1.5658 3.98567 6.07875e-39
-2.59806 -1.57857 3.99027 6.16987e-39
-2.65317 -1.62325 4.07491 6.16987e-39
-2.57769 -1.63145 3.95899 1.47404e-39
-2.62058 -1.66965 4.02485 1.8421e-39
-2.66851 -1.71145 4.09847 1.74991e-39
-2.60777 -1.6945 4.00518 1.74991e-39
-2.58537 -1.72358 3.97078 1.7517e-39
-2.58653 -1.73526 3.97256 1.65986e-39
-1.11522 -0.856413 1.71283 7.37777e-39
-2.72407 -0.323195 4.20154 9.95532e-39
-2.78527 -0.424872 4.29593 2.17491e-38
-2.70453 -0.446936 4.1714 2.31339e-38
-2.71597 -0.471843 4.18904 2.28562e-38
-2.7488 -0.500841 4.23968 2.18417e-38
-2.73036 -0.52062 4.21124 2.27636e-38
-2.71832 -0.552879 4.19267 2.2764e-38
-2.72364 -0.565501 4.20086 2.25792e-38
-2.72578 -0.612145 4.20416 2.13807e-38
-2.7086 -0.631242 4.17767 2.23948e-38
-2.68262 -0.716124 4.1376 2.18409e-38
-2.67469 -0.725341 4.12538 2.21183e-38
-2.71667 -0.748235 4.19011 2.23945e-38
-2.6971 -0.765703 4.15994 2.25792e-38
-2.70092 -0.789676 4.16583 2.11037e-38
-2.7036 -0.801916 4.16996 2.12881e-38
-2.66644 -0.80219 4.11264 2.18417e-38
-2.68155 -0.931724 4.13594 2.35084e-38
-2.63848 -0.927939 4.06951 2.32304e-38
-2.67577 -0.975067 4.12703 2.16606e-38
-2.67645 -0.986657 4.12808 2.18453e-38
-2.69591 -1.06237 4.1581 2.26788e-38
-2.6689 -1.07435 4.11644 2.21245e-38
-2.6611 -1.09376 4.10441 1.91736e-38
-2.66922 -1.1084 4.11693 1.82485e-38
-2.67851 -1.12361 4.13126 1.43731e-38
-2.66977 -1.13126 4.11777 1.14243e-38
-2.66223 -1.13934 4.10615 1.17009e-38
-2.66189 -1.15048 4.10563 1.1519e-38
-2.65486 -1.15869 4.09478 1.17949e-38
-2.65696 -1.17086 4.09803 1.24378e-38
-2.64964 -1.17886 4.08673 1.21633e-38
-2.64686 -1.18885 4.08245 1.15223e-38
-2.65427 -1.21467 4.09388 2.02783e-38
-2.62808 -1.23609 4.05348 7.00217e-39
-2.62611 -1.24629 4.05044 3.04065e-39
-2.64761 -1.26771 4.0836 2.21161e-39
-2.66142 -1.2856 4.1049 1.93502e-39
-2.59221 -1.2961 3.99815 2.48783e-39
-2.63948 -1.33093 4.07107 2.58002e-39
-2.61347 -1.33996 4.03095 2.30271e-39
-2.65113 -1.3705 4.08903 2.4871e-39
-2.64322 -1.37761 4.07684 2.67149e-39
-2.62623 -1.37988 4.05062 2.67149e-39
-2.62477 -1.39024 4.04838 2.76369e-39
-2.6479 -1.41371 4.08405 2.94808e-39
-2.64582 -1.42381 4.08084 3.22467e-39
-2.64233 -1.43313 4.07547 2.9488e-39
-2.63732 -1.44159 4.06773 3.13319e-39
-2.60294 -1.43382 4.01471 3.22395e-39
-2.63379 -1.47314 4.06229 3.40869e-39
-2.60874 -1.47018 4.02365 3.2243e-39
-2.61418 -1.48432 4.03205 3.3165e-39
-2.61901 -1.49816 4.03949 3.13211e-39
-2.62663 -1.51365 4.05124 3.96115e-39
-2.62435 -1.52346 4.04772 4.5136e-39
-2.6222 -1.54443 4.04442 5.43375e-39
-2.64062 -1.56647 4.07282 4.97277e-39
-2.58808 -1.54627 3.99179 5.80253e-39
-2.63641 -1.58632 4.06633 5.98692e-39
-2.63598 -1.59723 4.06567 5.98692e-39
-2.63015 -1.60484 4.05667 6.53938e-39
-2.62892 -1.61522 4.05477 6.26279e-39
-2.59054 -1.60262 3.99557 5.89438e-39
-2.61083 -1.6373 4.02687 2.39347e-39
-2.60798 -1.66867 4.02248 1.47404e-39
-2.62345 -1.72303 4.04634 1.84246e-39
-2.63675 -1.74294 4.06685 1.38184e-39
-2.57873 -1.71551 3.97737 1.28965e-39
-2.58088 -1.72788 3.98068 1.47439e-39
-1.87787 -1.43227 2.89638 7.46888e-39
-1.08024 -0.860534 1.66614 0
-1.04951 -0.85384 1.61874 0
-0.902955 0.476453 1.39862 2.34177e-38
-2.67931 -0.535862 4.15008 2.258e-38
-2.64961 -0.856896 4.10408 2.25792e-38
-2.66889 -1.16977 4.13394 1.22537e-38
-2.67951 -1.19723 4.15038 1.27136e-38
-2.58173 -1.29636 3.99893 2.58002e-39
-2.61435 -1.42399 4.04946 2.58002e-39
-2.629 -1.47672 4.07216 3.04028e-39
-2.6165 -1.48083 4.0528 3.50125e-39
-2.61917 -1.50463 4.05692 3.96187e-39
-2.61802 -1.51511 4.05515 4.42285e-39
-2.62337 -1.52937 4.06343 4.69943e-39
-2.56231 -1.50468 3.96885 5.25044e-39
-2.62495 -1.55263 4.06588 5.52631e-39
-2.62521 -1.59747 4.06628 6.17275e-39
-2.61035 -1.59953 4.04326 6.90959e-39
-2.56077 -1.59095 3.96647 5.89546e-39
-2.60304 -1.62829 4.03195 3.49838e-39
-2.59909 -1.67005 4.02582 1.38184e-39
-2.58466 -1.67178 4.00347 1.93465e-39
-2.60231 -1.70534 4.0308 1.75026e-39
-2.60668 -1.7193 4.03758 1.84246e-39
-0.561126 0.342911 0.872863 8.38801e-39
-1.236 0.147897 1.92266 1.63183e-38
-2.56433 -1.63284 3.98895 2.02685e-39
-2.58176 -1.68807 4.01607 4.23954e-39
-2.59514 -1.70791 4.03688 4.33174e-39
-2.60311 -1.72428 4.04929 4.05515e-39
-2.62692 -1.75128 4.08633 3.68709e-39
-2.51764 -1.72146 3.91632 3.77928e-39
-2.57006 -1.79026 3.99787 6.54623e-39
-1.08197 -0.90164 1.68306 0
-1.2412 0.0479434 1.93904 1.17992e-38
-2.65445 -1.77723 4.14686 2.02829e-39
-2.57513 -1.80149 4.02295 2.30451e-39
-2.5937 -1.83674 4.05195 2.1194e-39
-1.13344 -0.861026 1.7707 7.09866e-39
-1.12521 -0.87409 1.75784 7.28414e-39
-1.24397 0.117963 1.95175 1.74253e-38
-0.866747 -0.78082 1.3599 0
-2.0071 1.25118 3.16271 7.65187e-39
-0.972002 -0.866807 1.53164 0
-0.899569 -0.806108 1.4175 0
-0.977272 -0.879968 1.53994 0
-0.881312 -0.801193 1.38873 0
-1.13787 0.128629 1.8008 1.55814e-38
-0.899279 -0.172036 1.42321 2.1748e-38
-0.926065 -0.825406 1.4656 0
-2.07823 1.66077 3.30339 6.63448e-39
-2.12693 -0.854488 3.3808 2.20261e-38
-0.921725 -0.8372 1.4651 0
-0.930396 -0.857264 1.47888 0
-1.17146 -0.215794 1.87022 2.23963e-38
-1.9301 -0.643368 3.08139 2.23956e-38
-1.21579 -1.06115 1.941 0
-0.909375 -0.833594 1.45181 0
-0.929553 -0.856167 1.48402 0
-0.701954 0.655569 1.1256 0
-1.14641 -0.873695 1.83829 5.71179e-39
-1.043 -0.895969 1.67248 0
-0.962755 -0.860966 1.5438 0
-0.935726 -0.840916 1.50046 0
-0.934303 -0.851985 1.49818 0
-0.939903 -0.861233 1.50716 0
-0.908674 -0.836621 1.45708 0
-2.02201 1.78044 3.25669 5.80652e-39
-1.08341 -0.81016 1.74496 7.7361e-39
-1.08278 -0.814479 1.74394 5.43411e-39
-0.936122 -0.861563 1.50774 0
-0.450195 0.356154 0.728315 7.09367e-39
-1.13138 -0.130738 1.83033 1.27212e-38
-1.00185 -0.752501 1.62077 4.97243e-39
-0.961738 -0.867701 1.55588 0
-1.01219 -0.917721 1.6375 0
-0.923387 -0.85362 1.49383 0
-1.94164 1.74228 3.15516 6.54229e-39
-0.329106 0.0146922 0.534798 1.14305e-38
-1.19275 -0.926515 1.93823 4.69871e-39
-0.916782 -0.826741 1.48977 0
-0.887096 -0.819772 1.44153 0
-0.917635 -0.85209 1.49116 0
-0.928344 -0.866178 1.50856 0
-0.941381 -0.882545 1.52974 0
-0.900518 -0.848256 1.46334 0
-1.14398 -0.877226 1.86731 4.97386e-39
-1.18864 -0.932788 1.9402 5.16041e-39
-0.951152 -0.853051 1.55255 0
-0.92539 -0.846545 1.5105 0
-0.88828 -0.81658 1.44993 0
-0.899798 -0.835238 1.46873 0
-0.911191 -0.8499 1.48732 0
-0.956093 -0.896069 1.56062 0
-0.945978 -0.852232 1.55106 0
-0.960462 -0.869608 1.57481 0
-0.908298 -0.846926 1.48928 0
-0.948334 -0.88853 1.55493 0
-1.02594 0.0742759 1.68978 1.74253e-38
-1.00262 -0.902813 1.65138 0
-1.00505 -0.909549 1.65538 0
-0.950094 -0.864112 1.56486 0
-0.919589 -0.840529 1.51462 0
-0.883864 -0.835871 1.45578 0
-0.883431 -0.839459 1.45506 0
-0.957204 -0.865834 1.58374 0
-0.947947 -0.866079 1.56842 0
-0.890479 -0.833812 1.47334 0
-0.888159 -0.843751 1.4695 0
-0.864535 -0.825238 1.43041 0
-0.940492 -0.902018 1.55609 0
-0.919883 -0.0420038 1.52894 7.65043e-39
-1.15056 -0.88262 1.91234 4.69978e-39
-0.969939 -0.876932 1.61214 0
-0.94072 -0.854809 1.56357 0
-0.950978 -0.868473 1.58062 0
-0.944019 -0.866429 1.56906 0
-0.827344 -0.778232 1.37513 0
-0.862647 -0.819318 1.43381 0
-0.839207 -0.800887 1.39485 0
-0.382547 0.236898 0.638749 8.29582e-39
-1.03146 0.16087 1.72226 1.19847e-38
-1.67328 -0.130485 2.79392 8.01957e-39
-1.15713 -0.875808 1.93209 5.06425e-39
-1.11391 -0.940181 1.85992 4.4214e-39
-1.07025 -0.913153 1.78703 4.05406e-39
-1.12805 -0.972811 1.88353 0
-0.943065 -0.856545 1.57466 0
-0.936929 -0.85527 1.56441 0
-0.987697 -0.906144 1.64918 0
-0.898949 -0.841219 1.501 0
-0.883402 -0.842879 1.47504 0
-0.872393 -0.840378 1.45666 0
-2.63157 1.57651 4.41424 8.94046e-39
-1.1206 -0.950184 1.87971 4.51504e-39
-1.13944 -0.971414 1.91132 4.33065e-39
-0.980296 -0.898981 1.64437 0
-0.891102 -0.845931 1.49475 0
-0.848118 -0.820759 1.42265 0
-0.896313 -0.87153 1.50349 0
-0.331169 0.0260642 0.558081 1.65952e-38
-1.07748 -0.907879 1.81576 4.5136e-39
-1.05327 -0.89235 1.77495 4.23809e-39
-1.13366 -0.965714 1.91043 3.96186e-39
-1.09603 -0.938726 1.84701 3.40869e-39
-0.90093 -0.821682 1.51823 0
-0.925912 -0.848753 1.56033 0
-0.935693 -0.86205 1.57682 0
-0.930311 -0.861399 1.56775 0
-0.949117 -0.891995 1.59944 0
-0.934236 -0.882334 1.57436 0
-0.907516 -0.8613 1.52933 0
-0.897583 -0.860184 1.51259 0
-0.845078 -0.817691 1.42411 0
-1.0178 -0.842642 1.72316 4.42068e-39
-1.09636 -0.928082 1.85616 4.331e-39
-1.05552 -0.898417 1.78701 4.23881e-39
-1.11659 -0.960791 1.89042 4.0537e-39
-0.951101 -0.86705 1.61024 0
-0.920339 -0.843287 1.55815 0
-0.91125 -0.847674 1.54277 0
-0.901779 -0.847253 1.52673 0
-0.943792 -0.891115 1.59786 0
-0.939042 -0.890998 1.58982 0
-0.936813 -0.893241 1.58605 0
-0.896712 -0.863347 1.51816 0
-0.900354 -0.87104 1.52432 0
-0.838283 -0.818788 1.41923 0
-0.81512 -0.799955 1.38002 0
-0.982713 0.101027 1.67153 1.53967e-38
-0.33801 0.00789744 0.574933 6.36004e-39
-0.976901 -0.739523 1.66165 6.26099e-39
-1.09707 -0.927898 1.86605 4.2388e-39
-1.08706 -0.924512 1.84902 4.14733e-39
-1.08541 -0.943393 1.84621 4.14482e-39
-0.960041 -0.883776 1.63297 0
-0.885602 -0.856634 1.50635 0
-0.869565 -0.845185 1.47907 0
-0.868668 -0.852431 1.47755 0
-0.827855 -0.81625 1.40813 0
-0.729352 0.725928 1.2464 0
-2.56695 1.15694 4.38672 7.28166e-39
-1.15408 -0.899421 1.97222 4.97457e-39
-1.10072 -0.930185 1.88104 4.4232e-39
-1.08294 -0.920244 1.85066 4.14733e-39
-1.07881 -0.926863 1.8436 3.96294e-39
-0.960913 -0.884221 1.64212 0
-0.987182 -0.913028 1.68702 0
-0.975175 -0.9065 1.6665 0
-0.879616 -0.867228 1.50319 0
-0.810681 -0.803068 1.38539 0
-2.60094 1.72987 4.46576 7.09691e-39
-2.4061 -1.79322 4.13123 1.80627e-38
-1.11203 -0.902214 1.90934 4.78839e-39
-1.11904 -0.960686 1.92137 4.23952e-39
-0.965678 -0.888242 1.65805 0
-0.97649 -0.902792 1.67661 0
-0.949883 -0.891636 1.63093 0
-0.866622 -0.842095 1.48797 0
-0.888692 -0.867733 1.52587 0
-0.831526 -0.819759 1.42771 0
-0.878218 -0.869932 1.50788 0
-0.88644 -0.882259 1.522 0
-0.946564 -0.874787 1.63294 0
-0.894284 -0.868854 1.54275 0
-0.897239 -0.875977 1.54784 0
-0.858441 -0.842167 1.48091 0
-0.844877 -0.832864 1.45751 0
-0.873241 -0.864964 1.50644 0
-0.854494 -0.850444 1.4741 0
-0.856701 -0.856701 1.47791 0
-0.910982 0.0563941 1.57903 1.15234e-38
-0.97506 -0.90077 1.6901 0
-0.895653 -0.831678 1.55247 0
-0.889237 -0.859596 1.54135 0
-0.881334 -0.86035 1.52765 0
-0.846181 -0.838122 1.46671 0
-0.831931 -0.827969 1.44201 0
-1.16664 -0.904286 2.03185 4.60507e-39
-1.15543 -0.906655 2.01233 4.88238e-39
-0.982955 -0.907705 1.71194 0
-0.861747 -0.832885 1.50084 0
-0.83272 -0.816783 1.45029 0
-0.85172 -0.839495 1.48338 0
-0.829262 -0.825294 1.44426 0
-0.545633 0.00786971 0.954858 5.06895e-39
-0.988403 -0.917124 1.72971 0
-0.992248 -0.925462 1.73643 0
-0.799721 -0.772807 1.39951 0
-0.938265 -0.915711 1.64196 0
-0.856263 -0.839796 1.49846 0
-0.886659 -0.882397 1.55165 0
-0.870141 -0.870141 1.52275 0
-0.865461 -0.869622 1.51456 0
-1.12845 -0.877681 1.98432 5.24972e-39
-1.12047 -0.936433 1.9703 4.4214e-39
-0.9868 -0.92006 1.73524 0
-0.957429 -0.897301 1.6836 0
-0.806217 -0.778953 1.4177 0
-0.891423 -0.887117 1.56753 0
-0.835418 -0.843489 1.46904 0
-0.851109 -0.863444 1.49664 0
-0.796728 -0.812124 1.40101 0
-2.52727 -1.33725 4.46567 4.23378e-39
-1.10749 -0.870941 1.95693 4.97314e-39
-1.15743 -0.972019 2.04517 4.88094e-39
-0.831095 -0.802854 1.46854 0
-0.866976 -0.85435 1.53194 0
-0.845304 -0.837098 1.49364 0
-0.864025 -0.864025 1.52672 0
-0.825256 -0.833268 1.45822 0
-0.829025 -0.845123 1.46488 0
-0.860452 -0.881336 1.52041 0
-0.797032 -0.0194398 1.41522 5.89907e-39
-2.16427 -1.2141 3.84291 4.23199e-39
-1.05171 -0.831107 1.86743 5.15717e-39
-1.11449 -0.945957 1.9789 4.51288e-39
-0.959282 -0.903129 1.70331 0
-0.859997 -0.851607 1.52702 0
-0.830627 -0.842782 1.47487 0
-0.813655 -0.829532 1.44473 0
-0.78351 -0.80262 1.39121 0
-0.817513 -0.841441 1.45158 0
-1.74375 1.67537 3.1114 6.63558e-39
-0.78352 0.0921788 1.39805 1.58577e-38
-1.13954 -0.932862 2.0333 4.60579e-39
-0.816516 -0.808511 1.45692 0
-0.848378 -0.844219 1.51377 0
-0.848501 -0.860979 1.51399 0
-0.810921 -0.834771 1.44694 0
-1.09013 0.338315 1.95471 5.25479e-39
-0.958325 0.0519289 1.71837 7.46604e-39
-1.15205 -0.902342 2.06574 4.69799e-39
-1.10089 -0.900236 1.97401 4.51324e-39
-0.951317 -0.885709 1.70581 0
-0.983436 -0.920458 1.7634 0
-0.876445 -0.846223 1.57156 0
-0.874894 -0.857655 1.56878 0
-0.849562 -0.837007 1.52335 0
-0.828942 -0.828942 1.48638 0
-0.848419 -0.865137 1.5213 0
-0.829514 -0.849945 1.4874 0
-0.863138 -0.888649 1.5477 0
-0.800456 -0.828058 1.4353 0
-0.837476 -0.87048 1.50168 0
-1.72594 1.13638 3.1101 6.82068e-39
-1.01326 -0.943034 1.82587 0
-0.947706 -0.891407 1.70775 0
-0.900059 -0.859957 1.62189 0
-0.947747 -0.92898 1.70782 0
-0.882584 -0.878215 1.5904 0
-0.844957 -0.84914 1.5226 0
-0.806923 -0.822902 1.45406 0
-0.822755 -0.851266 1.48259 0
-0.81873 -0.851155 1.47534 0
-0.802263 -0.838008 1.44566 0
-1.00651 -0.941415 1.82274 0
-0.996625 -0.937125 1.80483 0
-0.904462 -0.863964 1.63793 0
-0.927351 -0.890442 1.67938 0
-0.886789 -0.877965 1.60593 0
-0.887268 -0.887268 1.60679 0
-0.850634 -0.854866 1.54045 0
-0.835622 -0.843937 1.51327 0
-0.844553 -0.857158 1.52944 0
-0.8545 -0.871505 1.54745 0
-0.795114 -0.818849 1.43991 0
-0.78307 -0.810341 1.4181 0
-0.808596 -0.840779 1.46432 0
-0.814671 -0.851149 1.47533 0
-0.843926 -0.885913 1.5283 0
-0.525076 0.548704 0.955638 0
-0.989825 -0.930435 1.80148 0
-0.99389 -0.939226 1.80888 0
-0.956648 -0.908816 1.7411 0
-0.963918 -0.920541 1.75433 0
-0.951513 -0.913452 1.73175 0
-0.873576 -0.843001 1.58991 0
-0.986418 -0.956825 1.79528 0
-0.901355 -0.887835 1.64047 0
-0.869712 -0.869712 1.58288 0
-0.835416 -0.84377 1.52046 0
-0.864215 -0.881499 1.57287 0
-0.837195 -0.858125 1.52369 0
-0.824909 -0.857905 1.50133 0
-0.804162 -0.840349 1.46358 0
-0.811161 -0.851719 1.47631 0
-0.66181 0.655159 1.21055 6.72597e-39
-1.44123 -0.0362118 2.63622 8.57346e-39
-1.17118 -0.923995 2.14226 4.79018e-39
-0.952717 -0.904842 1.74266 0
-0.909802 -0.905231 1.66416 0
-0.821241 -0.829495 1.50217 0
-0.806012 -0.818163 1.47431 0
-0.820859 -0.841484 1.50147 0
-0.849897 -0.875522 1.55458 0
-0.777914 -0.805278 1.42292 0
-0.815784 -0.848579 1.49219 0
-0.8266 -0.863984 1.51197 0
-0.795954 -0.835952 1.45592 0
-0.807563 -0.852202 1.47715 0
-0.394336 0.00199159 0.72494 9.86348e-39
-1.00482 -0.948996 1.84724 0
-0.969655 -0.920683 1.7826 0
-0.99723 -0.951902 1.83329 0
-0.8996 -0.881426 1.65381 0
-0.871921 -0.858711 1.60293 0
-0.82234 -0.847259 1.51178 0
-0.824055 -0.853188 1.51493 0
-0.798718 -0.830989 1.46835 0
-0.781717 -0.81725 1.4371 0
-0.802732 -0.847328 1.47573 0
-1.21153 1.30378 2.23857 0
-0.838626 0.0936537 1.54954 1.76097e-38
-1.00291 -0.951999 1.85309 0
-1.00392 -0.95806 1.85497 0
-0.9701 -0.930705 1.79247 0
-0.953122 -0.919255 1.7611 0
-0.937751 -0.90919 1.7327 0
-0.840049 -0.827256 1.55217 0
-0.889156 -0.889156 1.64291 0
-0.862041 -0.866417 1.59281 0
-0.778512 -0.794319 1.43847 0
-0.778416 -0.813978 1.43829 0
-0.785157 -0.825013 1.45075 0
-0.811168 -0.856462 1.49881 0
-1.05062 -0.905891 1.95115 1.55724e-38
-0.997864 -0.946952 1.85318 0
-1.01382 -0.967263 1.8828 0
-0.989178 -0.948803 1.83704 0
-0.940271 -0.90669 1.74622 0
-0.914038 -0.886058 1.6975 0
-0.851781 -0.856127 1.58188 0
-0.863126 -0.871933 1.60295 0
-0.863167 -0.876379 1.60302 0
-0.849254 -0.870919 1.57719 0
-0.837328 -0.871505 1.55504 0
-0.830739 -0.868885 1.5428 0
-0.792507 -0.832941 1.4718 0
-0.792821 -0.837316 1.47238 0
-0.801003 -0.850044 1.48758 0
-0.801855 -0.855039 1.48916 0
-0.824606 0.190294 1.53926 7.65187e-39
-1.77425 -1.4558 3.31194 2.02737e-38
-1.13063 -0.968287 2.11052 1.38199e-38
-1.00058 -0.954395 1.86774 0
-0.969367 -0.929598 1.80949 0
-0.902052 -0.892801 1.68383 0
-0.812268 -0.816434 1.51623 0
-0.816534 -0.841658 1.5242 0
-0.813367 -0.842564 1.51828 0
-0.817212 -0.850739 1.52546 0
-0.826324 -0.8687 1.54247 0
-0.786169 -0.830517 1.46752 0
-0.800789 -0.850069 1.49481 0
-0.8109 -0.86496 1.51368 0
-0.779691 -0.843666 1.45542 0
-0.328176 0.279119 0.615753 6.54229e-39
-0.317988 0.268815 0.596638 6.543e-39
-2.18477 1.14869 4.09926 6.17602e-39
-1.14736 -0.975843 2.15277 1.52961e-38
-1.11065 -0.984702 2.0839 1.3821e-38
-0.974528 -0.934341 1.8285 0
-0.963629 -0.933827 1.80805 0
-0.875989 -0.862443 1.64361 0
-0.831848 -0.823273 1.56079 0
-0.947376 -0.947376 1.77755 0
-0.817243 -0.829881 1.53338 0
-0.829103 -0.846198 1.55564 0
-0.836647 -0.85821 1.56979 0
-0.808542 -0.837716 1.51706 0
-0.820237 -0.854061 1.539 0
-0.802468 -0.839696 1.50566 0
-0.81502 -0.857032 1.52921 0
-0.820228 -0.866735 1.53898 0
-0.761382 -0.808478 1.42857 0
-0.805177 -0.859132 1.51074 0
-0.78976 -0.846753 1.48182 0
-0.774937 -0.834855 1.45401 0
-0.765088 -0.828189 1.43553 0
-1.16958 1.08474 2.20585 8.84719e-39
-0.658465 -0.0341174 1.24187 7.65222e-39
-1.15144 -0.930694 2.17162 5.34768e-39
-0.91526 -0.867837 1.72619 1.50249e-38
-0.970876 -0.930633 1.83108 0
-0.952134 -0.9176 1.79573 0
-0.93523 -0.906155 1.76385 0
-0.911481 -0.89259 1.71906 0
-0.903645 -0.889599 1.70428 0
-0.845979 -0.837212 1.59552 0
-0.883112 -0.883112 1.66556 0
-0.810993 -0.836205 1.52954 0
-0.822142 -0.851961 1.55057 0
-0.817612 -0.851502 1.54202 0
-0.822244 -0.860587 1.55076 0
-0.813631 -0.860003 1.53452 0
-0.78397 -0.8449 1.47858 0
-0.773122 -0.837215 1.45812 0
-0.754146 -0.820573 1.42233 0
-0.737516 -0.806299 1.39096 0
-1.91327 2.11257 3.62724 0
-0.79887 0.149788 1.51452 1.35524e-38
-0.792374 0.0247617 1.50221 5.34626e-39
-0.909584 -0.890635 1.72442 0
-0.882414 -0.873222 1.67291 0
-0.889081 -0.884451 1.68555 0
-0.793674 -0.814343 1.50467 0
-0.823487 -0.862088 1.56119 0
-0.811761 -0.854041 1.53896 0
-0.840489 -0.888642 1.59343 0
-0.805599 -0.860145 1.52728 0
-0.787901 -0.85356 1.49373 0
-0.780017 -0.849081 1.47878 0
-0.774645 -0.847268 1.4686 0
-0.731949 -0.804381 1.38765 0
-1.15709 -0.926887 2.20514 2.02685e-39
-0.96553 -0.930144 1.84007 1.46547e-38
-0.911634 -0.897315 1.73736 0
-0.898451 -0.889043 1.71223 0
-0.928548 -0.923687 1.76959 0
-0.902851 -0.902851 1.72062 0
-0.809231 -0.834652 1.5422 0
-0.776391 -0.812975 1.47961 0
-0.860421 -0.918983 1.63975 0
-0.81855 -0.878549 1.55996 0
-0.811707 -0.879704 1.54692 0
-0.792911 -0.863484 1.5111 0
-0.772082 -0.852928 1.4714 0
-2.2421 2.33651 4.29539 6.91144e-39
-1.2121 -0.988822 2.32214 3.50449e-39
-1.08808 -0.910554 2.08454 8.94042e-39
-0.953149 -0.918033 1.82603 1.53001e-38
-0.953486 -0.923376 1.82668 1.49313e-38
-0.918007 -0.908343 1.75871 0
-0.949184 -0.944189 1.81844 0
-0.940571 -0.940571 1.80194 0
-0.905808 -0.910576 1.73534 0
-0.886051 -0.895378 1.69749 0
-0.849035 -0.862441 1.62657 0
-0.850623 -0.868531 1.62961 0
-0.813839 -0.873806 1.55914 0
-0.816427 -0.880881 1.5641 0
-0.796041 -0.863076 1.52505 0
-0.800025 -0.871606 1.53268 0
-0.79543 -0.874973 1.52388 0
-0.7451 -0.823532 1.42746 0
-0.683989 -0.759588 1.31038 0
-0.968301 -0.937561 1.86488 1.55767e-38
-0.949208 -0.924097 1.8281 1.51157e-38
-0.937644 -0.917799 1.80583 0
-0.947183 -0.932149 1.8242 0
-0.924224 -0.919334 1.77999 0
-0.909481 -0.909481 1.75159 0
-0.913725 -0.923394 1.75977 0
-0.896019 -0.910241 1.72567 0
-0.875185 -0.893708 1.68554 0
-0.853393 -0.87597 1.64357 0
-0.772214 -0.837587 1.48723 0
-0.802638 -0.874833 1.54582 0
-0.779076 -0.853274 1.50044 0
-0.759935 -0.836331 1.46358 0
-0.756862 -0.836954 1.45766 0
-0.675835 -0.754504 1.30161 0
-1.18398 -0.995049 2.29239 8.94153e-39
-1.0732 -0.924778 2.0779 9.76877e-39
-1.01717 -0.973889 1.96942 1.59433e-38
-0.96052 -0.934974 1.85973 1.52079e-38
-0.94901 -0.928819 1.83745 1.50235e-38
-0.936514 -0.926551 1.81325 0
-0.932407 -0.927447 1.8053 0
-0.897367 -0.897367 1.73746 0
-0.904315 -0.909125 1.75091 0
-0.89779 -0.907341 1.73827 0
-0.897104 -0.911419 1.73695 0
-0.895031 -0.914074 1.73293 0
-0.89502 -0.918823 1.73291 0
-0.867844 -0.895541 1.68029 0
-0.758257 -0.826822 1.46811 0
-0.777316 -0.855874 1.50502 0
-0.740057 -0.818786 1.43288 0
-0.761108 -0.846125 1.47363 0
-0.748269 -0.835832 1.44878 0
-1.09965 -0.929115 2.14049 8.84934e-39
-1.07365 -0.930115 2.08989 8.84932e-39
-1.07051 -0.967462 2.08377 1.73252e-38
-0.996711 -0.964731 1.94012 1.60369e-38
-0.954935 -0.929402 1.8588 1.59451e-38
-0.944562 -0.924357 1.83861 1.53923e-38
-0.944044 -0.928899 1.8376 1.51157e-38
-0.955766 -0.945543 1.86042 0
-0.885884 -0.885884 1.7244 0
-0.917421 -0.922327 1.78578 0
-0.876873 -0.886251 1.70685 0
-0.86972 -0.883672 1.69293 0
-0.887777 -0.906767 1.72808 0
-0.887972 -0.911714 1.72846 0
-0.889293 -0.917826 1.73103 0
-0.87179 -0.904424 1.69696 0
-0.858409 -0.899723 1.67091 0
-0.772922 -0.830787 1.50451 0
-0.820233 -0.886027 1.5966 0
-0.803727 -0.872495 1.56447 0
-0.795264 -0.867561 1.548 0
-0.790747 -0.875319 1.53921 0
-0.731617 -0.813777 1.42411 0
-0.7269 -0.812418 1.41493 0
-0.753816 -0.846531 1.46732 0
-0.718922 0.707327 1.40692 6.35683e-39
-1.80998 1.46939 3.54211 6.4501e-39
-1.1122 -0.950756 2.17657 7.282e-39
-1.04594 -0.916606 2.0469 8.47947e-39
-0.922035 -0.887335 1.80441 1.54816e-38
-0.97945 -0.953121 1.91677 1.53916e-38
-0.978633 -0.957587 1.91517 1.56682e-38
-0.901154 -0.891464 1.76355 1.51157e-38
-0.876626 -0.871913 1.71555 0
-0.858007 -0.871846 1.67911 0
-0.870163 -0.888876 1.7029 0
-0.880443 -0.904111 1.72302 0
-0.894742 -0.923605 1.751 0
-0.872674 -0.905517 1.70781 0
-0.88894 -0.931953 1.73965 0
-0.807177 -0.876612 1.57964 0
-0.811944 -0.886154 1.58896 0
-0.761562 -0.835262 1.49037 0
-0.810316 -0.89309 1.58578 0
-0.801219 -0.887372 1.56798 0
-0.731306 -0.817804 1.43116 0
-0.744236 -0.836265 1.45646 0
-0.767828 -0.866903 1.50263 0
-0.976665 -0.94499 1.92165 1.56649e-38
-0.95836 -0.932458 1.88564 1.59426e-38
-0.945012 -0.924579 1.85937 1.56674e-38
-0.97238 -0.961868 1.91322 1.50235e-38
-0.898194 -0.893339 1.76726 1.49313e-38
-0.866593 -0.885331 1.70508 0
-0.864552 -0.887919 1.70107 0
-0.87591 -0.904318 1.72341 0
-0.879013 -0.912273 1.72952 0
-0.87937 -0.917397 1.73022 0
-0.913966 -0.95843 1.79829 0
-0.883263 -0.935781 1.73788 0
-0.818316 -0.884666 1.61009 0
-0.794036 -0.862709 1.56232 0
-0.810704 -0.885201 1.59511 0
-0.795675 -0.873092 1.56554 0
-0.803444 -0.88596 1.58083 0
-0.780276 -0.86463 1.53525 0
-0.793737 -0.883836 1.56173 0
-0.75979 -0.850143 1.49494 0
-0.757368 -0.851527 1.49017 0
-0.761531 -0.860325 1.49836 0
-0.743289 -0.847751 1.46247 0
-1.16601 -1.00759 2.30668 7.5557e-39
-0.914368 -0.904429 1.80886 1.52987e-38
-0.86332 -0.891471 1.70787 0
-0.864929 -0.902535 1.71106 0
-0.889362 -0.932863 1.75939 0
-0.779852 -0.847665 1.54275 0
-0.758836 -0.828946 1.50118 0
-0.796072 -0.873949 1.57484 0
-0.781069 -0.861722 1.54516 0
-0.768771 -0.852333 1.52083 0
-0.778453 -0.867298 1.53998 0
-0.764626 -0.856049 1.51263 0
-0.759428 -0.854356 1.50235 0
-0.741798 -0.838555 1.46747 0
-0.733319 -0.832955 1.4507 0
-0.74801 -0.853707 1.47976 0
-0.870349 -0.784741 1.73119 9.57899e-39
-0.872549 -0.805797 1.73556 2.19328e-38
-0.915751 -0.905743 1.82149 1.52057e-38
-0.894069 -0.894069 1.77837 1.53916e-38
-0.921122 -0.926156 1.83218 1.50228e-38
-0.903298 -0.91317 1.79672 0
-0.859764 -0.873858 1.71013 0
-0.848014 -0.866549 1.68676 0
-0.826704 -0.849292 1.64437 0
-0.860294 -0.893202 1.71119 0
-0.846776 -0.883793 1.6843 0
-0.843698 -0.885191 1.67818 0
-0.863734 -0.910933 1.71803 0
-0.763619 -0.838729 1.51889 0
-0.754868 -0.833242 1.50149 0
-0.758347 -0.841226 1.50841 0
-0.742245 -0.839589 1.47638 0
-0.758989 -0.862676 1.50968 0
-0.734964 -0.839385 1.46189 0
-0.736997 -0.845734 1.46594 0
-0.772222 -0.890376 1.536 0
-0.693263 0.0647554 1.38653 8.66638e-39
-1.63659 -1.35783 3.27317 2.02685e-39
-0.863483 -0.763851 1.72697 1.87975e-38
-0.875144 -0.778974 1.75029 1.92592e-38
-0.85461 -0.765393 1.70922 1.85245e-38
-0.856306 -0.771617 1.71261 2.11034e-38
-0.858716 -0.778506 1.71743 2.10087e-38
-0.875535 -0.803376 1.75107 2.14711e-38
-0.854231 -0.788521 1.70846 2.16566e-38
-0.854499 -0.793463 1.709 2.21175e-38
-0.892125 -0.87742 1.78425 1.57571e-38
-0.910343 -0.90034 1.82069 1.55738e-38
-0.921413 -0.921413 1.84283 1.60344e-38
-0.878947 -0.883776 1.75789 1.54831e-38
-0.914428 -0.924476 1.82886 1.53916e-38
-0.867062 -0.881354 1.73412 0
-0.850283 -0.86897 1.70057 0
-0.833911 -0.85682 1.66782 0
-0.870617 -0.899319 1.74123 0
-0.887945 -0.922096 1.77589 0
-0.862243 -0.904881 1.72449 0
-0.857842 -0.904976 1.71568 0
-0.830881 -0.881099 1.66176 0
-0.83207 -0.886932 1.66414 0
-0.923047 -0.999122 1.84609 0
-0.810448 -0.881697 1.6209 0
-0.768709 -0.853182 1.53742 0
-0.810663 -0.904201 1.62133 0
-0.802632 -0.899654 1.60526 0
-0.783162 -0.882133 1.56632 0
-0.741563 -0.839352 1.48313 0
-0.787959 -0.896195 1.57592 0
-0.758641 -0.867018 1.51728 0
-0.748146 -0.859135 1.49629 0
-0.733942 -0.846856 1.46788 0
-0.742051 -0.86029 1.4841 0
-0.676769 0.11965 1.36102 1.82558e-38
-0.849663 -0.746389 1.70872 2.06442e-38
-0.857347 -0.757876 1.72417 2.07361e-38
-0.868984 -0.772963 1.74757 2.1564e-38
-0.854762 -0.765036 1.71897 2.1658e-38
-0.841503 -0.757818 1.69231 2.14733e-38
-0.849617 -0.769818 1.70862 2.13811e-38
-0.849813 -0.774691 1.70902 2.22108e-38
-0.853182 -0.782476 1.71579 2.16573e-38
-0.856255 -0.790026 1.72197 2.23952e-38
-0.854181 -0.792831 1.7178 2.26707e-38
-0.854794 -0.798123 1.71903 2.2486e-38
-0.851697 -0.799936 1.71281 2.27629e-38
-0.84422 -0.797578 1.69777 2.27629e-38
-0.8233 -0.782362 1.6557 2.29473e-38
-0.901163 -0.891205 1.81228 1.61262e-38
-0.936926 -0.942102 1.8842 1.58504e-38
-0.921669 -0.931854 1.85352 1.55742e-38
-0.886968 -0.906569 1.78374 0
-0.862165 -0.885981 1.73386 0
-0.892593 -0.922182 1.79505 0
-0.872091 -0.905818 1.75382 0
-0.87348 -0.912087 1.75661 0
-0.875704 -0.919247 1.76108 0
-0.839545 -0.890567 1.68837 0
-0.839487 -0.895143 1.68825 0
-0.833438 -0.893298 1.67609 0
-0.845042 -0.910404 1.69942 0
-0.805847 -0.890438 1.6206 0
-0.789703 -0.876963 1.58813 0
-0.80271 -0.895842 1.61429 0
-0.79839 -0.895432 1.6056 0
-0.790216 -0.89063 1.58916 0
-0.761181 -0.862111 1.53077 0
-0.756605 -0.861109 1.52157 0
-0.750684 -0.858517 1.50966 0
-0.745119 -0.85627 1.49847 0
-0.718947 -0.830165 1.44584 0
-0.731297 -0.848466 1.47067 0
-0.69257 -0.807361 1.39279 0
-0.315614 0.341915 0.638241 7.27915e-39
-0.633907 0.109173 1.2819 1.91781e-38
-1.08549 -0.904579 2.19511 2.6715e-39
-1.08249 -0.908085 2.18903 5.51013e-40
-0.846008 -0.737907 1.71082 2.21183e-38
-0.842952 -0.739925 1.70464 2.19343e-38
-0.847325 -0.74847 1.71348 2.19343e-38
-0.852359 -0.757653 1.72366 2.25796e-38
-0.859236 -0.768539 1.73757 2.23952e-38
-0.859007 -0.773106 1.7371 2.32261e-38
-0.850264 -0.769962 1.71942 2.32261e-38
-0.850477 -0.774879 1.71985 2.33176e-38
-0.853347 -0.782235 1.72566 2.35034e-38
-0.850852 -0.784674 1.72061 2.33186e-38
-0.85678 -0.794902 1.7326 2.3409e-38
-0.858026 -0.800825 1.73512 2.29481e-38
-0.859825 -0.80728 1.73876 2.25796e-38
-0.854871 -0.807378 1.72874 2.29484e-38
-0.850105 -0.8076 1.7191 2.3225e-38
-0.836893 -0.799698 1.69238 2.35016e-38
-0.855038 -0.821787 1.72908 2.35012e-38
-0.872946 -0.843847 1.76529 2.19328e-38
-0.864399 -0.840388 1.74801 1.94432e-38
-0.929495 -0.924331 1.87965 1.64025e-38
-0.950891 -0.961456 1.92291 1.56649e-38
-0.919537 -0.934863 1.85951 1.57578e-38
-0.904649 -0.924752 1.8294 1.62188e-38
-0.880488 -0.904946 1.78054 0
-0.888431 -0.922981 1.79661 0
-0.859625 -0.902607 1.73835 0
-0.857476 -0.905114 1.73401 0
-0.846344 -0.898065 1.7115 0
-0.838864 -0.894788 1.69637 0
-0.783032 -0.878736 1.58346 0
-0.780809 -0.880579 1.57897 0
-0.779614 -0.883563 1.57655 0
-0.753399 -0.858037 1.52354 0
-0.741863 -0.849021 1.50021 0
-0.739537 -0.850468 1.49551 0
-0.753006 -0.87014 1.52275 0
-0.738019 -0.856923 1.49244 0
-0.72377 -0.844399 1.46362 0
-0.727527 -0.852824 1.47122 0
-0.482483 -0.0592996 0.981139 9.21991e-39
-1.07256 -0.892798 2.18106 3.13247e-39
-1.07918 -0.910366 2.19453 2.35081e-38
-0.869094 -0.752567 1.76732 2.35016e-38
-0.850111 -0.740879 1.72872 2.33183e-38
-0.847863 -0.743657 1.72415 2.29498e-38
-0.849432 -0.749778 1.72734 2.31324e-38
-0.845527 -0.751055 1.7194 2.35045e-38
-0.846507 -0.756654 1.72139 2.35066e-38
-0.852405 -0.766688 1.73338 2.35073e-38
-0.851554 -0.77068 1.73165 2.35073e-38
-0.851574 -0.775456 1.73169 2.35063e-38
-0.848457 -0.777357 1.72535 2.35048e-38
-0.851167 -0.784596 1.73087 2.35041e-38
-0.850383 -0.788624 1.72927 2.28584e-38
-0.852693 -0.795529 1.73397 2.26736e-38
-0.852526 -0.800136 1.73363 2.22119e-38
-0.862175 -0.814009 1.75325 2.21197e-38
-0.855057 -0.812066 1.73878 2.2119e-38
-0.850585 -0.81257 1.72968 2.24878e-38
-0.848747 -0.815556 1.72594 2.2764e-38
-0.845613 -0.817268 1.71957 2.28551e-38
-0.852884 -0.82906 1.73436 2.267e-38
-0.861439 -0.842189 1.75175 2.10109e-38
-0.844805 -0.830646 1.71793 1.92588e-38
-0.909157 -0.909157 1.84879 1.75085e-38
-0.91714 -0.922263 1.86502 1.65865e-38
-0.884408 -0.89923 1.79846 1.62177e-38
-0.906847 -0.927112 1.84409 1.61256e-38
-0.889758 -0.919583 1.80934 0
-0.868407 -0.902368 1.76592 0
-0.86823 -0.907034 1.76556 0
-0.86562 -0.909143 1.76025 0
-0.859884 -0.907922 1.74859 0
-0.850468 -0.902732 1.72944 0
-0.852838 -0.910011 1.73426 0
-0.854756 -0.916833 1.73816 0
-0.819485 -0.897314 1.66644 0
-0.766055 -0.843088 1.55779 0
-0.761446 -0.859285 1.54842 0
-0.778554 -0.882941 1.5832 0
-0.776205 -0.884614 1.57843 0
-0.749799 -0.858708 1.52473 0
-0.733383 -0.844006 1.49135 0
-0.730329 -0.84457 1.48514 0
-0.756091 -0.878586 1.53752 0
-0.735032 -0.858221 1.4947 0
-0.72684 -0.852718 1.47804 0
-0.70158 -0.827002 1.42668 0
-0.850203 0.296138 1.73862 2.34177e-38
-1.1833 -0.0598298 2.41978 7.83627e-39
-1.17777 -0.0992504 2.40848 8.2054e-39
-1.1999 -0.990929 2.45373 3.40727e-39
-0.823411 -0.707763 1.68383 2.3041e-38
-0.87141 -0.753917 1.78199 2.34097e-38
-0.858517 -0.747585 1.75562 2.35019e-38
-0.849733 -0.74471 1.73766 2.35059e-38
-0.847429 -0.747451 1.73294 2.35056e-38
-0.851111 -0.75548 1.74047 2.34112e-38
-0.850433 -0.759657 1.73909 2.33186e-38
-0.846689 -0.761069 1.73143 2.32254e-38
-0.835748 -0.75593 1.70906 2.29509e-38
-0.843722 -0.767882 1.72536 2.30424e-38
-0.846306 -0.774988 1.73065 2.35055e-38
-0.841813 -0.775603 1.72146 2.35063e-38
-0.851322 -0.789147 1.74091 2.35063e-38
-0.849294 -0.792038 1.73676 2.34126e-38
-0.850912 -0.798328 1.74007 2.3507e-38
-0.854244 -0.806253 1.74688 2.34116e-38
-0.857122 -0.813785 1.75277 2.24896e-38
-0.852913 -0.814579 1.74416 2.22126e-38
-0.850465 -0.81702 1.73915 2.2029e-38
-0.847323 -0.818762 1.73273 2.22123e-38
-0.849209 -0.825355 1.73658 2.27644e-38
-0.85122 -0.832091 1.7407 2.28544e-38
-0.845473 -0.831223 1.72894 2.1564e-38
-0.863321 -0.853621 1.76544 2.02729e-38
-0.871782 -0.871782 1.78274 1.86141e-38
-0.901257 -0.90632 1.84302 1.75071e-38
-0.91091 -0.921145 1.86276 1.70468e-38
-0.905823 -0.921089 1.85236 1.64021e-38
-0.894015 -0.914105 1.82821 1.65854e-38
-0.893682 -0.923806 1.82753 0
-0.890399 -0.925415 1.82082 0
-0.872173 -0.911372 1.78355 0
-0.846907 -0.889728 1.73188 0
-0.853662 -0.90162 1.74569 0
-0.860579 -0.91376 1.75983 0
-0.865702 -0.924064 1.77031 0
-0.843443 -0.905043 1.72479 0
-0.829947 -0.895224 1.6972 0
-0.832659 -0.907505 1.70274 0
-0.795575 -0.871557 1.62691 0
-0.824809 -0.908216 1.68669 0
-0.788511 -0.872678 1.61246 0
-0.766272 -0.86098 1.56698 0
-0.76594 -0.864909 1.5663 0
-0.764971 -0.868113 1.56432 0
-0.766231 -0.873847 1.5669 0
-0.753306 -0.867571 1.54047 0
-0.736005 -0.851781 1.50509 0
-0.736811 -0.856853 1.50674 0
-0.740035 -0.86476 1.51333 0
-0.736317 -0.864552 1.50573 0
-0.718134 -0.847237 1.46854 0
-1.52397 1.47231 3.13403 7.00328e-39
-0.833918 -0.716133 1.71495 2.32286e-38
-0.859767 -0.743189 1.76811 2.11981e-38
-0.854671 -0.743612 1.75763 2.1841e-38
-0.852367 -0.746423 1.75289 2.18435e-38
-0.845217 -0.744937 1.73819 2.3042e-38
-0.843055 -0.747795 1.73374 2.23045e-38
-0.846034 -0.755216 1.73987 2.3042e-38
-0.853269 -0.766496 1.75475 2.32257e-38
-0.849613 -0.768012 1.74723 2.34097e-38
-0.84387 -0.767588 1.73542 2.35045e-38
-0.842932 -0.771497 1.73349 2.35055e-38
-0.842966 -0.776291 1.73356 2.3507e-38
-0.848368 -0.786058 1.74467 2.35048e-38
-0.854531 -0.796597 1.75734 2.3507e-38
-0.852136 -0.799178 1.75242 2.35081e-38
-0.852543 -0.804377 1.75325 2.35088e-38
-0.851616 -0.808314 1.75135 2.35084e-38
-0.849917 -0.811503 1.74785 2.35088e-38
-0.84067 -0.807423 1.72883 2.3507e-38
-0.841451 -0.812928 1.73044 2.33204e-38
-0.844674 -0.820813 1.73707 2.35034e-38
-0.856181 -0.836832 1.76073 2.25811e-38
-0.850581 -0.836164 1.74922 2.21176e-38
-0.849907 -0.840303 1.74783 2.28562e-38
-0.856514 -0.851675 1.76142 2.17488e-38
-0.858264 -0.858264 1.76502 1.9813e-38
-0.862484 -0.867356 1.7737 1.89825e-38
-0.902999 -0.913202 1.85702 1.75074e-38
-0.915706 -0.931226 1.88315 1.72308e-38
-0.910536 -0.931113 1.87251 1.67695e-38
-0.910586 -0.936308 1.87262 1.6217e-38
-0.919567 -0.950739 1.89109 1.83375e-38
-0.837622 -0.880213 1.72257 0
-0.846811 -0.894653 1.74146 0
-0.843945 -0.896393 1.73557 0
-0.864234 -0.922826 1.7773 0
-0.846367 -0.90853 1.74055 0
-0.832035 -0.902547 1.71108 0
-0.799099 -0.871334 1.64334 0
-0.776298 -0.850857 1.59645 0
-0.792107 -0.872661 1.62897 0
-0.747404 -0.836079 1.53703 0
-0.743253 -0.835634 1.5285 0
-0.758146 -0.860946 1.55913 0
-0.766056 -0.874256 1.57539 0
-0.752871 -0.867716 1.54828 0
-0.763504 -0.884285 1.57014 0
-0.74433 -0.866283 1.53071 0
-0.727103 -0.854449 1.49529 0
-0.720178 -0.85038 1.48104 0
-0.719896 -0.854114 1.48046 0
-1.51447 1.47145 3.13221 6.4501e-39
-1.51106 1.45955 3.12515 6.54338e-39
-0.556625 0.0537649 1.1512 8.6653e-39
-0.846149 -0.730765 1.74999 2.02762e-38
-0.840735 -0.730866 1.73879 2.01833e-38
-0.850633 -0.744303 1.75926 1.98155e-38
-0.848226 -0.747017 1.75429 2.01843e-38
-0.844308 -0.748364 1.74618 2.0552e-38
-0.845208 -0.753964 1.74804 2.11981e-38
-0.847779 -0.761074 1.75336 2.1013e-38
-0.845879 -0.764175 1.74943 2.11048e-38
-0.845706 -0.768823 1.74907 2.12896e-38
-0.84366 -0.771757 1.74484 2.05524e-38
-0.837896 -0.771245 1.73292 2.1013e-38
-0.846312 -0.7838 1.75033 2.09219e-38
-0.851813 -0.793735 1.7617 2.1568e-38
-0.856272 -0.802755 1.77093 2.19368e-38
-0.852425 -0.803992 1.76297 2.20301e-38
-0.856162 -0.812381 1.7707 2.30431e-38
-0.852667 -0.81391 1.76347 2.35074e-38
-0.845927 -0.812283 1.74953 2.35074e-38
-0.836498 -0.807981 1.73003 2.35081e-38
-0.836906 -0.81313 1.73087 2.35088e-38
-0.845816 -0.826593 1.7493 2.35073e-38
-0.843278 -0.828904 1.74405 2.25814e-38
-0.856979 -0.84724 1.77239 2.20279e-38
-0.848038 -0.84322 1.7539 2.34108e-38
-0.857841 -0.857841 1.77417 2.35059e-38
-0.863217 -0.868121 1.78529 2.24874e-38
-0.863026 -0.872833 1.7849 1.93521e-38
-0.885065 -0.900151 1.83048 1.7784e-38
-0.904381 -0.924935 1.87042 1.83375e-38
-0.921185 -0.947355 1.90518 2.03651e-38
-0.915297 -0.9465 1.893 2.06417e-38
-0.919629 -0.956205 1.90196 1.889e-38
-0.923429 -0.965403 1.90982 0
-0.854909 -0.903483 1.76811 0
-0.854686 -0.91296 1.76765 0
-0.839138 -0.90112 1.73549 0
-0.837585 -0.904211 1.73228 0
-0.820488 -0.890416 1.69692 0
-0.828764 -0.904106 1.71403 0
-0.82741 -0.90733 1.71123 0
-0.792663 -0.878235 1.63937 0
-0.794122 -0.884364 1.64239 0
-0.781417 -0.879094 1.61611 0
-0.769662 -0.874616 1.5918 0
-0.739343 -0.844363 1.5291 0
-0.76907 -0.882683 1.59058 0
-0.764764 -0.882086 1.58167 0
-0.744348 -0.866996 1.53945 0
-1.50812 1.47365 3.13688 6.54338e-39
-1.51921 1.4758 3.15995 6.54338e-39
-0.609455 0.52239 1.26767 6.35899e-39
-0.686778 0.109885 1.4285 2.19444e-38
-0.841423 -0.730836 1.75016 1.97219e-38
-0.841163 -0.735417 1.74962 1.92609e-38
-0.848638 -0.746801 1.76517 1.96304e-38
-0.849416 -0.75234 1.76679 1.95375e-38
-0.846934 -0.754981 1.76162 1.99063e-38
-0.846893 -0.759784 1.76154 2.00907e-38
-0.843017 -0.761124 1.75347 2.00907e-38
-0.838182 -0.761548 1.74342 2.00907e-38
-0.838039 -0.766207 1.74312 2.01829e-38
-0.841104 -0.773815 1.7495 2.02751e-38
-0.839024 -0.776697 1.74517 2.06439e-38
-0.846427 -0.788386 1.76057 2.08286e-38
-0.852509 -0.798923 1.77322 2.12907e-38
-0.852838 -0.804105 1.7739 2.13832e-38
-0.850304 -0.806574 1.76863 2.14747e-38
-0.852863 -0.813875 1.77395 2.14754e-38
-0.851881 -0.817806 1.77191 2.21219e-38
-0.847111 -0.818067 1.76199 2.35052e-38
-0.840083 -0.81608 1.74737 2.3507e-38
-0.83984 -0.820643 1.74687 2.35088e-38
-0.840172 -0.825769 1.74756 2.35066e-38
-0.852195 -0.842456 1.77257 2.23056e-38
-0.852093 -0.847224 1.77235 2.29506e-38
-0.854448 -0.854448 1.77725 2.35059e-38
-0.850227 -0.855085 1.76847 2.35048e-38
-0.856233 -0.866019 1.78096 2.35041e-38
-0.873687 -0.888664 1.81727 2.22116e-38
-0.868608 -0.888462 1.80671 2.27637e-38
-0.864514 -0.889214 1.79819 2.34076e-38
-0.90326 -0.93939 1.87878 2.01814e-38
-0.896049 -0.937011 1.86378 1.90751e-38
-0.876836 -0.92193 1.82382 0
-0.876697 -0.926794 1.82353 0
-0.836621 -0.893989 1.74017 0
-0.865349 -0.929632 1.79993 0
-0.830442 -0.896878 1.72732 0
-0.835402 -0.907008 1.73764 0
-0.823146 -0.903109 1.71214 0
-0.798761 -0.88092 1.66142 0
-0.797499 -0.893199 1.6588 0
-0.751316 -0.85006 1.56274 0
-0.779426 -0.886319 1.62121 0
-0.732093 -0.836678 1.52275 0
-0.740221 -0.850197 1.53966 0
-0.713141 -0.823168 1.48333 0
-0.775263 -0.899305 1.61255 0
-0.759483 -0.88534 1.57972 0
-0.742725 -0.887026 1.54487 0
-1.51845 1.49227 3.17653 6.63593e-39
-1.51448 1.47967 3.16823 6.72777e-39
-0.661509 0.0798373 1.38385 2.30493e-38
-0.836015 -0.735116 1.7489 1.80627e-38
-0.852161 -0.754211 1.78268 1.89843e-38
-0.851604 -0.758613 1.78152 1.89836e-38
-0.840479 -0.753533 1.75824 1.85234e-38
-0.847824 -0.76499 1.77361 1.89847e-38
-0.834379 -0.757654 1.74548 1.91695e-38
-0.832973 -0.761165 1.74254 1.90769e-38
-0.834407 -0.767271 1.74554 1.96297e-38
-0.838481 -0.775836 1.75406 2.02744e-38
-0.83526 -0.777656 1.74733 2.06431e-38
-0.838462 -0.785456 1.75402 2.07361e-38
-0.843061 -0.79461 1.76365 2.09205e-38
-0.844849 -0.80115 1.76738 2.12892e-38
-0.842468 -0.803734 1.7624 2.11974e-38
-0.849364 -0.815194 1.77683 2.15669e-38
-0.847815 -0.81858 1.77359 2.21204e-38
-0.850516 -0.826076 1.77924 2.26751e-38
-0.839767 -0.820462 1.75675 2.31368e-38
-0.838261 -0.823808 1.7536 2.34126e-38
-0.829823 -0.820285 1.73595 2.34119e-38
-0.834902 -0.830104 1.74658 2.21212e-38
-0.840216 -0.840216 1.75769 2.35055e-38
-0.850715 -0.855604 1.77966 2.3507e-38
-0.851949 -0.861742 1.78224 2.35059e-38
-0.853999 -0.868723 1.78653 2.35055e-38
-0.849713 -0.869246 1.77756 2.3503e-38
-0.840531 -0.864684 1.75835 2.35045e-38
-0.848051 -0.877294 1.77408 2.3503e-38
-0.852024 -0.886301 1.78239 2.23938e-38
-0.881047 -0.926618 1.84311 1.92599e-38
-0.881761 -0.932437 1.8446 0
-0.859283 -0.918544 1.79758 0
-0.856645 -0.920648 1.79206 0
-0.850733 -0.919183 1.77969 0
-0.85862 -0.93264 1.79619 0
-0.826568 -0.902575 1.72914 0
-0.841429 -0.923638 1.76023 0
-0.815616 -0.89999 1.70623 0
-0.849651 -0.952196 1.77743 0
-0.748992 -0.847997 1.56686 0
-0.739286 -0.841257 1.54655 0
-0.793015 -0.906954 1.65895 0
-0.718384 -0.829857 1.50283 0
-0.71155 -0.826052 1.48853 0
-0.755939 -0.881929 1.58139 0
-0.754287 -0.884336 1.57793 0
-0.682131 -0.827182 1.42699 0
-1.50676 1.51547 3.17029 5.90017e-39
-1.50656 1.50656 3.16986 1.11521e-38
-1.54915 1.4596 3.25948 6.45046e-39
-0.940299 0.42395 1.97843 7.19126e-39
-0.650777 0.0940429 1.36927 2.26812e-38
-0.535999 -0.0402774 1.12777 7.65187e-39
-0.846034 -0.748226 1.78009 1.6127e-38
-0.856866 -0.767712 1.80289 1.6127e-38
-0.843434 -0.760553 1.77462 1.50224e-38
-0.833068 -0.756021 1.75281 1.64983e-38
-0.830775 -0.758742 1.74799 1.76958e-38
-0.830321 -0.763128 1.74703 1.83401e-38
-0.838878 -0.775841 1.76504 1.85234e-38
-0.838576 -0.780409 1.7644 1.89851e-38
-0.829887 -0.77712 1.74612 1.97219e-38
-0.832497 -0.784376 1.75161 2.02751e-38
-0.83509 -0.791645 1.75707 2.00003e-38
-0.836825 -0.798128 1.76072 2.07361e-38
-0.836849 -0.802988 1.76077 2.12892e-38
-0.842175 -0.812966 1.77197 2.13818e-38
-0.849149 -0.824607 1.78665 2.18435e-38
-0.843607 -0.824102 1.77499 2.27665e-38
-0.834686 -0.820212 1.75622 2.31353e-38
-0.831466 -0.821853 1.74944 2.31353e-38
-0.832556 -0.827743 1.75174 2.30431e-38
-0.825501 -0.825501 1.73689 2.23988e-38
-0.836453 -0.841288 1.75993 2.3507e-38
-0.845849 -0.855628 1.77971 2.35066e-38
-0.84781 -0.862512 1.78383 2.32279e-38
-0.846831 -0.866411 1.78177 2.34115e-38
-0.838333 -0.862562 1.76389 2.34112e-38
-0.840617 -0.869771 1.7687 2.35052e-38
-0.83736 -0.871242 1.76184 2.35052e-38
-0.868688 -0.913879 1.82776 2.15662e-38
-0.812621 -0.859594 1.70979 1.97223e-38
-0.83727 -0.900186 1.76165 0
-0.840158 -0.908148 1.76773 0
-0.841789 -0.914777 1.77116 0
-0.840527 -0.918263 1.76851 0
-0.834245 -0.916223 1.75529 0
-0.829878 -0.916224 1.7461 0
-0.839026 -0.931173 1.76535 0
-0.858591 -0.962813 1.80651 0
-0.832881 -0.938797 1.75242 0
-0.806541 -0.913769 1.697 0
-0.770688 -0.877604 1.62156 0
-0.730954 -0.853484 1.53796 0
-0.72723 -0.85334 1.53013 0
-0.74677 -0.880584 1.57124 0
-0.739564 -0.876363 1.55608 0
-0.694893 -0.831462 1.46209 0
-0.691387 -0.835259 1.45471 0
-0.676723 -0.825367 1.42386 0
-1.49297 1.51033 3.15954 6.54626e-39
-0.835428 -0.762571 1.768 1.21651e-38
-0.829505 -0.761987 1.75546 1.27179e-38
-0.833757 -0.77074 1.76446 1.44686e-38
-0.833607 -0.775448 1.76414 1.62199e-38
-0.830598 -0.777478 1.75778 1.56678e-38
-0.82804 -0.779898 1.75236 1.76961e-38
-0.82869 -0.785328 1.75374 1.91713e-38
-0.829623 -0.791036 1.75571 1.99081e-38
-0.833146 -0.799239 1.76317 2.01818e-38
-0.833495 -0.80442 1.76391 2.1103e-38
-0.838174 -0.813809 1.77381 2.11052e-38
-0.841371 -0.821804 1.78057 2.11971e-38
-0.840635 -0.825973 1.77902 2.19361e-38
-0.829756 -0.820108 1.756 2.23048e-38
-0.832885 -0.828043 1.76262 2.29506e-38
-0.827898 -0.827898 1.75206 2.26743e-38
-0.830274 -0.835102 1.75709 2.35073e-38
-0.828472 -0.838106 1.75328 2.35077e-38
-0.835278 -0.849847 1.76768 2.32293e-38
-0.835415 -0.854844 1.76797 2.31357e-38
-0.837209 -0.861546 1.77177 2.30435e-38
-0.845529 -0.875025 1.78938 2.32286e-38
-0.840991 -0.875217 1.77977 2.35041e-38
-0.842477 -0.881661 1.78292 2.32275e-38
-0.845999 -0.890266 1.79037 2.25814e-38
-0.845568 -0.894729 1.78946 2.17517e-38
-0.839809 -0.903282 1.77727 0
-0.82224 -0.889167 1.74009 0
-0.821862 -0.893536 1.73929 0
-0.825343 -0.90212 1.74666 0
-0.831357 -0.913526 1.75938 0
-0.832919 -0.920085 1.76269 0
-0.829291 -0.920899 1.75501 0
-0.822075 -0.917665 1.73974 0
-0.83233 -0.933951 1.76144 0
-0.822761 -0.927998 1.74119 0
-0.826479 -0.936996 1.74906 0
-0.80083 -0.912574 1.69478 0
-0.799268 -0.915441 1.69147 0
-0.808605 -0.930836 1.71123 0
-0.777939 -0.900057 1.64634 0
-0.779097 -0.905926 1.64879 0
-0.725871 -0.852476 1.53615 0
-0.725287 -0.856007 1.53491 0
-0.741171 -0.879063 1.56852 0
-0.739752 -0.881681 1.56552 0
-0.724161 -0.867309 1.53253 0
-0.703756 -0.846962 1.48934 0
-0.696143 -0.841847 1.47323 0
-0.690391 -0.838906 1.46106 0
-0.6901 -0.842564 1.46044 0
-0.700839 -0.85975 1.48317 0
-1.45784 1.47489 3.10324 9.58583e-39
-1.33585 1.32023 2.84357 6.35718e-39
-1.44391 1.35103 3.07359 7.00291e-39
-1.69831 1.0031 3.61512 6.72813e-39
-0.831192 -0.768002 1.76932 1.23513e-38
-0.819766 -0.762238 1.745 1.37328e-38
-0.822199 -0.769309 1.75018 1.34555e-38
