# .PCD v.7 - Point Cloud Data file format
VERSION .7
FIELDS x y z
SIZE 4 4 4
TYPE F F F
COUNT 1 1 1
WIDTH 1820
HEIGHT 1
VIEWPOINT 0 0 0 1 0 0 0
POINTS 1820
DATA ascii
0.719318 0.0667722 1.10478
0.716798 0.0635137 1.1009
0.716264 0.0604442 1.10008
0.713464 0.0571976 1.09579
0.715678 0.0543553 1.09918
0.714586 0.0512572 1.09751
0.715331 0.0482924 1.09865
0.714094 0.0451958 1.09675
0.714823 0.0422258 1.09787
0.716139 0.0392819 1.09989
0.716795 0.0362934 1.1009
0.715716 0.0332189 1.09924
0.716111 0.0302156 1.09985
0.715499 0.0271709 1.09891
0.716477 0.0241849 1.10041
0.714427 0.0211012 1.09726
0.71448 0.0180881 1.09734
0.712073 0.0150226 1.09365
0.714311 0.0120559 1.09709
0.714892 0.00904927 1.09798
0.717534 0.00605514 1.10204
0.715566 0.00301927 1.09901
0.714729 0 1.09773
0.7141 -0.00301308 1.09676
0.712398 -0.0060118 1.09415
0.712175 -0.00901488 1.09381
0.710444 -0.0119906 1.09115
0.713436 -0.0150514 1.09574
0.712098 -0.0180278 1.09369
0.713204 -0.0210651 1.09539
0.711112 -0.0240038 1.09217
0.713102 -0.0270798 1.09523
0.710874 -0.0299947 1.09181
0.712487 -0.033069 1.09428
0.712571 -0.0360796 1.09441
0.714874 -0.0392125 1.09795
0.713952 -0.0421744 1.09653
0.71496 -0.0452506 1.09808
0.713402 -0.0481621 1.09569
0.713161 -0.051155 1.09532
0.711915 -0.0540695 1.09341
0.712806 -0.0571448 1.09477
0.709749 -0.0598944 1.09008
0.708751 -0.0628007 1.08855
0.705328 -0.0654735 1.08329
0.708947 -0.0688008 1.08885
0.709544 -0.0718526 1.08976
0.712979 -0.0752088 1.09504
0.710342 -0.0779279 1.09099
0.711236 -0.0810269 1.09236
0.70888 -0.0837495 1.08874
0.709814 -0.0868548 1.09018
0.705754 -0.0893359 1.08394
0.705917 -0.0923351 1.08419
0.704172 -0.0950781 1.08151
0.707366 -0.098494 1.08642
0.707317 -0.101472 1.08634
0.709718 -0.104811 1.09003
0.708384 -0.107603 1.08798
0.70797 -0.110527 1.08735
0.705844 -0.113173 1.08408
0.705983 -0.116174 1.08429
0.706272 -0.119202 1.08474
0.708304 -0.122534 1.08786
0.707439 -0.125369 1.08653
0.709528 -0.128733 1.08974
0.706494 -0.131163 1.08508
0.707287 -0.134295 1.0863
0.704107 -0.136662 1.08141
0.705884 -0.139986 1.08414
0.704743 -0.142733 1.08239
0.70616 -0.145999 1.08457
0.704599 -0.14865 1.08217
0.706131 -0.151952 1.08452
0.704418 -0.154556 1.08189
0.705492 -0.157768 1.08354
0.702618 -0.16009 1.07913
0.704337 -0.163454 1.08177
0.704766 -0.166527 1.08242
0.708269 -0.170343 1.0878
0.70821 -0.173317 1.08771
0.707173 -0.176047 1.08612
0.704222 -0.178284 1.08159
0.702898 -0.180915 1.07956
0.702657 -0.183817 1.07919
0.705664 -0.187581 1.0838
0.705529 -0.190523 1.0836
0.706316 -0.193715 1.08481
0.702258 -0.195565 1.07857
0.701852 -0.198414 1.07795
0.699205 -0.200616 1.07389
0.7012 -0.204147 1.07695
0.700947 -0.207031 1.07656
0.703933 -0.210883 1.08115
0.702787 -0.213505 1.07939
0.702985 -0.216531 1.07969
0.699107 -0.218287 1.07373
0.700035 -0.22153 1.07516
0.698574 -0.224015 1.07291
0.700959 -0.227738 1.07658
0.699523 -0.230223 1.07437
0.701677 -0.233892 1.07768
0.700133 -0.236332 1.07531
0.702059 -0.239944 1.07827
0.700163 -0.242251 1.07536
0.701531 -0.245684 1.07746
0.69796 -0.247378 1.07197
0.698003 -0.250339 1.07204
0.695003 -0.252195 1.06743
0.696487 -0.255673 1.06971
0.695968 -0.258418 1.06891
0.699766 -0.262781 1.07475
0.698694 -0.265327 1.0731
0.699426 -0.268556 1.07422
0.696338 -0.270308 1.06948
0.697332 -0.273636 1.07101
0.697043 -0.276464 1.07056
0.697791 -0.279705 1.07171
0.697897 -0.282693 1.07188
0.69791 -0.285642 1.0719
0.698868 -0.288984 1.07337
0.697791 -0.291482 1.07171
0.696601 -0.293924 1.06988
0.695651 -0.296459 1.06843
0.695797 -0.299457 1.06865
0.696572 -0.302729 1.06984
0.6971 -0.3059 1.07065
0.697971 -0.309228 1.07199
0.698109 -0.312234 1.0722
0.697106 -0.314727 1.07066
0.69062 -0.314713 1.0607
0.680936 -0.313173 1.04583
0.672243 -0.312011 1.03247
0.670616 -0.314086 1.02997
0.669742 -0.316502 1.02863
0.670637 -0.319755 1.03001
0.670823 -0.322675 1.03029
0.670036 -0.325123 1.02909
0.668296 -0.327098 1.02641
0.671632 -0.331565 1.03154
0.684524 -0.340818 1.05134
0.699366 -0.351158 1.07413
0.698821 0.622479 1.06878
0.722346 0.6404 1.10477
0.724234 0.63903 1.10765
0.726218 0.637729 1.11069
0.717961 0.627461 1.09806
0.709139 0.616772 1.08457
0.707892 0.612713 1.08266
0.720871 0.620918 1.10251
0.722846 0.619582 1.10553
0.721676 0.615548 1.10374
0.72422 0.614674 1.10763
0.731433 0.617723 1.11866
0.725523 0.609683 1.10962
0.719642 0.601718 1.10063
0.729742 0.607096 1.11608
0.731678 0.605633 1.11904
0.726352 0.598172 1.11089
0.728494 0.596875 1.11417
0.730024 0.595062 1.11651
0.729845 0.591849 1.11623
0.729862 0.588796 1.11626
0.731196 0.5868 1.1183
0.725819 0.579435 1.11008
0.713998 0.566999 1.092
0.718493 0.567549 1.09887
0.725355 0.569922 1.10937
0.729103 0.569803 1.1151
0.726887 0.565017 1.11171
0.727204 0.562208 1.11219
0.728924 0.560476 1.11483
0.728601 0.557165 1.11433
0.728027 0.553668 1.11345
0.724735 0.548119 1.10842
0.723714 0.544306 1.10686
0.722088 0.540049 1.10437
0.726624 0.540389 1.11131
0.729686 0.5396 1.11599
0.723354 0.531878 1.10631
0.721766 0.527678 1.10388
0.721974 0.524796 1.1042
0.724058 0.523269 1.10738
0.726415 0.52192 1.11099
0.721577 0.515412 1.10359
0.720787 0.511819 1.10238
0.721796 0.509503 1.10392
0.721953 0.506581 1.10416
0.721471 0.503211 1.10343
0.72171 0.500345 1.10379
0.724246 0.49906 1.10767
0.724279 0.49604 1.10772
0.723864 0.492714 1.10709
0.725548 0.490812 1.10966
0.728791 0.489944 1.11462
0.730651 0.488124 1.11747
0.727915 0.483238 1.11328
0.723755 0.477435 1.10692
0.724221 0.474699 1.10763
0.72386 0.471421 1.10708
0.723364 0.468059 1.10632
0.719619 0.462612 1.10059
0.72478 0.462885 1.10849
0.723082 0.458762 1.10589
0.726409 0.457821 1.11098
0.721108 0.45145 1.10287
0.722982 0.449586 1.10574
0.722533 0.44627 1.10505
0.725348 0.444961 1.10936
0.724974 0.441686 1.10878
0.724797 0.438532 1.10851
0.722537 0.43413 1.10506
0.724463 0.432243 1.108
0.724766 0.429378 1.10847
0.726889 0.427582 1.11171
0.72523 0.423558 1.10917
0.72685 0.421451 1.11165
0.723834 0.416661 1.10704
0.724678 0.414102 1.10833
0.723206 0.410222 1.10608
0.729444 0.410696 1.11562
0.728899 0.407326 1.11479
0.728381 0.403976 1.11399
0.723708 0.398344 1.10685
0.723548 0.395215 1.1066
0.72176 0.391206 1.10387
0.722749 0.388705 1.10538
0.720551 0.384496 1.10202
0.722918 0.382722 1.10564
0.72127 0.378818 1.10312
0.72384 0.377127 1.10705
0.722194 0.373235 1.10453
0.72491 0.371593 1.10869
0.723166 0.36766 1.10602
0.724163 0.365124 1.10754
0.720539 0.360269 1.102
0.723488 0.358704 1.10651
0.722471 0.355164 1.10496
0.725993 0.353845 1.11034
0.724638 0.35014 1.10827
0.72814 0.348773 1.11363
0.725238 0.344336 1.10919
0.725136 0.341241 1.10903
0.722207 0.336828 1.10455
0.725118 0.335139 1.109
0.726943 0.332928 1.1118
0.72858 0.330616 1.1143
0.725518 0.326178 1.10962
0.723935 0.322425 1.10719
0.722323 0.318672 1.10473
0.723236 0.316036 1.10612
0.722547 0.312699 1.10507
0.722135 0.309486 1.10444
0.721755 0.306291 1.10386
0.723095 0.303821 1.10591
0.722413 0.300499 1.10487
0.722864 0.29765 1.10556
0.721901 0.29422 1.10408
0.723279 0.291743 1.10619
0.721939 0.288169 1.10414
0.723312 0.285678 1.10624
0.7227 0.282399 1.10531
0.724216 0.279949 1.10762
0.721341 0.275807 1.10323
0.722894 0.273363 1.1056
0.721572 0.269831 1.10358
0.721691 0.266844 1.10376
0.719921 0.263164 1.10106
0.722311 0.261003 1.10471
0.721871 0.257811 1.10404
0.722963 0.255163 1.10571
0.720507 0.251269 1.10195
0.721889 0.248718 1.10407
0.719444 0.244853 1.10033
0.718689 0.241576 1.09917
0.719677 0.238884 1.10068
0.723096 0.236981 1.10591
0.724182 0.234294 1.10757
0.722067 0.230576 1.10434
0.719967 0.22688 1.10113
0.720844 0.224128 1.10247
0.721689 0.221358 1.10376
0.721551 0.218284 1.10355
0.719684 0.214696 1.10069
0.720009 0.211767 1.10119
0.720513 0.208888 1.10196
0.721768 0.206219 1.10388
0.721648 0.203153 1.1037
0.721044 0.199953 1.10277
0.719941 0.196622 1.10109
0.718909 0.19332 1.09951
0.718311 0.190141 1.09859
0.719444 0.187418 1.10033
0.720105 0.184565 1.10134
0.722768 0.18221 1.10541
0.72146 0.178849 1.10341
0.722084 0.17597 1.10436
0.719545 0.172328 1.10048
0.719847 0.169376 1.10094
0.71932 0.166229 1.10014
0.720609 0.1635 1.10211
0.72122 0.160608 1.10304
0.723001 0.157967 1.10577
0.722344 0.154788 1.10476
0.72317 0.151927 1.10603
0.718371 0.1479 1.09869
0.718859 0.14498 1.09943
0.717765 0.141744 1.09776
0.719523 0.139067 1.10045
0.719376 0.136016 1.10022
0.720562 0.133213 1.10204
0.720076 0.130098 1.10129
0.7188 0.126847 1.09934
0.717824 0.123659 1.09785
0.719409 0.120909 1.10027
0.718609 0.117755 1.09905
0.718993 0.114797 1.09964
0.718396 0.111683 1.09872
0.72275 0.109323 1.10538
0.721865 0.106157 1.10403
0.722939 0.103277 1.10567
0.720916 0.099959 1.10258
0.72177 0.0970447 1.10388
0.719209 0.0936785 1.09997
0.7197 0.0907185 1.10072
0.718602 0.0875607 1.09904
0.718448 0.0845233 1.0988
0.716632 0.0812986 1.09603
0.717506 0.078383 1.09736
0.719391 0.0755663 1.10024
0.719566 0.0725613 1.10051
0.719857 0.069566 1.10096
0.719518 0.0665101 1.10044
0.717785 0.0633339 1.09779
0.717666 0.0603081 1.09761
0.714819 0.0570654 1.09325
0.717097 0.0542342 1.09674
0.715675 0.0511196 1.09456
0.716927 0.0481968 1.09648
0.716033 0.0451281 1.09511
0.716326 0.0421368 1.09556
0.717248 0.0391774 1.09697
0.718496 0.0362267 1.09888
0.718058 0.0331876 1.09821
0.719231 0.0302198 1.1
0.718712 0.0271782 1.09921
0.719991 0.0242014 1.10116
0.716901 0.0210853 1.09644
0.71548 0.0180373 1.09426
0.71244 0.0149672 1.08961
0.715463 0.0120246 1.09424
0.715635 0.00902061 1.0945
0.718809 0.00604041 1.09935
0.716755 0.00301158 1.09621
0.716205 0 1.09537
0.715364 -0.00300573 1.09409
0.712602 -0.00598825 1.08986
0.713436 -0.00899289 1.09114
0.711401 -0.0119563 1.08802
0.715915 -0.0150402 1.09493
0.713551 -0.0179887 1.09131
0.714702 -0.0210207 1.09307
0.711179 -0.0239052 1.08769
0.712812 -0.0269551 1.09018
0.709795 -0.0298233 1.08557
0.712113 -0.0329128 1.08911
0.713635 -0.0359816 1.09144
0.716993 -0.0391635 1.09658
0.715002 -0.0420589 1.09353
0.71517 -0.0450737 1.09379
0.711538 -0.0478345 1.08823
0.711528 -0.0508234 1.08822
0.710598 -0.0537427 1.0868
0.714412 -0.0570329 1.09263
0.71363 -0.0599689 1.09143
0.712717 -0.0628868 1.09004
0.708961 -0.0655342 1.08429
0.709931 -0.0686067 1.08578
0.711185 -0.0717161 1.08769
0.712673 -0.0748606 1.08997
0.710657 -0.0776348 1.08689
0.710525 -0.0806058 1.08669
0.709354 -0.0834535 1.08489
0.710088 -0.0865234 1.08602
0.707567 -0.0891892 1.08216
0.708348 -0.0922638 1.08336
0.708125 -0.0952101 1.08302
0.710192 -0.098472 1.08618
0.710065 -0.101438 1.08598
0.711348 -0.10461 1.08794
0.710659 -0.107495 1.08689
0.710631 -0.110476 1.08685
0.708446 -0.113113 1.08351
0.707442 -0.115925 1.08197
0.707347 -0.118882 1.08182
0.70953 -0.12223 1.08516
0.710085 -0.125309 1.08601
0.711051 -0.128467 1.08749
0.70934 -0.131139 1.08487
0.710423 -0.134324 1.08653
0.708681 -0.136972 1.08386
0.709167 -0.140046 1.08461
0.706846 -0.142557 1.08106
0.70696 -0.145551 1.08123
0.704675 -0.148041 1.07774
0.70573 -0.151228 1.07935
0.70486 -0.154003 1.07802
0.707007 -0.157443 1.0813
0.705434 -0.160056 1.0789
0.706454 -0.163256 1.08046
0.707258 -0.166414 1.08169
0.708836 -0.169763 1.0841
0.707477 -0.17241 1.08202
0.705366 -0.17486 1.07879
0.703051 -0.17724 1.07525
0.703078 -0.180201 1.0753
0.703566 -0.183282 1.07604
0.7064 -0.186988 1.08038
0.706118 -0.18988 1.07995
0.706452 -0.192939 1.08046
0.701701 -0.194589 1.07319
0.701719 -0.197543 1.07322
0.700949 -0.200271 1.07204
0.704757 -0.20432 1.07786
0.704454 -0.207192 1.0774
0.706672 -0.210814 1.08079
0.705317 -0.213373 1.07872
0.705505 -0.216394 1.07901
0.700532 -0.217813 1.0714
0.701118 -0.22094 1.0723
0.700239 -0.223606 1.07095
0.702691 -0.227341 1.0747
0.701318 -0.229844 1.0726
0.702953 -0.233333 1.0751
0.701609 -0.235835 1.07305
0.703215 -0.23933 1.07551
0.701732 -0.241773 1.07324
0.702098 -0.244849 1.0738
0.699864 -0.247011 1.07038
0.699384 -0.24978 1.06965
0.697855 -0.252166 1.06731
0.698356 -0.255282 1.06807
0.698587 -0.258301 1.06843
0.701078 -0.262168 1.07224
0.699369 -0.264467 1.06962
0.698583 -0.267105 1.06842
0.698341 -0.269947 1.06805
0.701325 -0.274047 1.07261
0.70119 -0.276941 1.07241
0.699597 -0.279251 1.06997
0.69834 -0.281683 1.06805
0.697949 -0.284458 1.06745
0.698423 -0.287586 1.06818
0.697378 -0.290086 1.06658
0.697749 -0.293172 1.06715
0.697051 -0.295808 1.06608
0.696272 -0.298402 1.06489
0.697267 -0.301759 1.06641
0.697885 -0.304958 1.06735
0.699418 -0.308567 1.0697
0.698645 -0.311161 1.06852
0.696988 -0.313352 1.06598
0.692871 -0.314412 1.05969
0.684605 -0.313538 1.04704
0.677252 -0.313016 1.0358
0.672645 -0.313712 1.02875
0.671014 -0.315771 1.02626
0.669771 -0.318001 1.02436
0.670077 -0.320961 1.02482
0.670739 -0.324096 1.02584
0.671467 -0.327269 1.02695
0.674924 -0.33179 1.03224
0.683514 -0.338885 1.04537
0.709785 0.6296 1.08101
0.719069 0.634827 1.09515
0.724859 0.636905 1.10397
0.726371 0.635195 1.10627
0.722408 0.628707 1.10024
0.719071 0.622793 1.09515
0.720846 0.621315 1.09786
0.723946 0.620958 1.10258
0.722709 0.616873 1.1007
0.723494 0.614516 1.10189
0.7261 0.613691 1.10586
0.726236 0.610768 1.10607
0.720695 0.603092 1.09763
0.724022 0.602847 1.1027
0.729282 0.604175 1.11071
0.736891 0.607395 1.12229
0.72328 0.59315 1.10157
0.720496 0.587853 1.09732
0.729359 0.592032 1.11082
0.730482 0.589887 1.11253
0.731047 0.587285 1.11339
0.730503 0.583791 1.11257
0.727869 0.57864 1.10855
0.725488 0.573713 1.10493
0.72988 0.574132 1.11162
0.730363 0.571456 1.11235
0.73181 0.569526 1.11456
0.726347 0.562235 1.10624
0.7244 0.557697 1.10327
0.726748 0.556464 1.10685
0.72689 0.553531 1.10706
0.729415 0.552402 1.11091
0.727746 0.548093 1.10837
0.72975 0.546549 1.11142
0.726692 0.541218 1.10676
0.728468 0.539493 1.10947
0.726223 0.534792 1.10605
0.725527 0.531244 1.10499
0.722478 0.525988 1.10034
0.72284 0.523227 1.10089
0.726377 0.522748 1.10628
0.726358 0.519696 1.10625
0.724206 0.515126 1.10298
0.718441 0.508019 1.09419
0.723679 0.508695 1.10217
0.727103 0.508059 1.10739
0.725397 0.503832 1.10479
0.723193 0.499275 1.10143
0.724908 0.497427 1.10404
0.726561 0.49552 1.10656
0.723862 0.490651 1.10245
0.724501 0.488053 1.10342
0.728319 0.487578 1.10924
0.730114 0.485725 1.11197
0.728216 0.481415 1.10908
0.724995 0.476252 1.10418
0.72585 0.473777 1.10548
0.723579 0.469267 1.10202
0.722921 0.465816 1.10102
0.721044 0.461589 1.09816
0.726123 0.461802 1.10589
0.724379 0.457662 1.10324
0.72418 0.454506 1.10293
0.719445 0.448524 1.09572
0.721778 0.446958 1.09928
0.725495 0.446225 1.10494
0.729653 0.445729 1.11127
0.728357 0.44189 1.1093
0.725969 0.437404 1.10566
0.721569 0.431734 1.09896
0.723918 0.430111 1.10254
0.723999 0.427129 1.10266
0.729159 0.427122 1.11052
0.727752 0.423254 1.10838
0.729513 0.421225 1.11106
0.726162 0.416252 1.10595
0.727651 0.414061 1.10822
0.725123 0.409588 1.10437
0.728662 0.408538 1.10976
0.72797 0.405105 1.10871
0.730159 0.403268 1.11204
0.724215 0.396955 1.10299
0.72401 0.393813 1.10268
0.720001 0.38862 1.09657
0.723845 0.387666 1.10243
0.721063 0.383159 1.09819
0.722567 0.380935 1.10048
0.720347 0.37675 1.0971
0.723408 0.375325 1.10176
0.722719 0.371943 1.10071
0.724085 0.369617 1.10279
0.722634 0.365853 1.10058
0.725209 0.364122 1.1045
0.723699 0.360336 1.1022
0.726416 0.358649 1.10634
0.723473 0.354169 1.10186
0.725268 0.352013 1.10459
0.724322 0.348523 1.10315
0.72756 0.347037 1.10808
0.72728 0.34386 1.10766
0.728949 0.341599 1.1102
0.728067 0.33814 1.10886
0.728851 0.335455 1.11005
0.728639 0.332308 1.10973
0.728624 0.329253 1.1097
0.726437 0.325225 1.10637
0.72524 0.321654 1.10455
0.724275 0.318196 1.10308
0.724224 0.315144 1.103
0.723978 0.312007 1.10263
0.724461 0.309184 1.10336
0.724116 0.306007 1.10284
0.723664 0.302788 1.10215
0.722657 0.299343 1.10062
0.722608 0.2963 1.10054
0.722206 0.293113 1.09993
0.722847 0.290348 1.1009
0.721848 0.286927 1.09938
0.723615 0.284602 1.10207
0.722263 0.281048 1.10002
0.723694 0.278577 1.1022
0.723056 0.275306 1.10122
0.724399 0.272786 1.10327
0.723634 0.26947 1.1021
0.721983 0.265835 1.09959
0.721262 0.262551 1.09849
0.722645 0.260031 1.1006
0.721111 0.256462 1.09826
0.72238 0.253891 1.10019
0.720951 0.250372 1.09802
0.725083 0.248773 1.10431
0.723275 0.245127 1.10156
0.72404 0.242357 1.10272
0.723456 0.239134 1.10183
0.724503 0.236449 1.10343
0.723454 0.233079 1.10183
0.721405 0.229401 1.09871
0.72114 0.226299 1.0983
0.722495 0.223701 1.10037
0.723687 0.221042 1.10218
0.721916 0.217481 1.09949
0.719317 0.213688 1.09553
0.719877 0.210843 1.09638
0.72092 0.208132 1.09797
0.722374 0.205529 1.10018
0.720875 0.202086 1.0979
0.721561 0.19926 1.09895
0.720684 0.196002 1.09761
0.721557 0.19322 1.09894
0.721186 0.190103 1.09837
0.722434 0.18741 1.10028
0.721937 0.18426 1.09952
0.723762 0.181697 1.1023
0.722974 0.178475 1.1011
0.722685 0.17538 1.10066
0.718915 0.171457 1.09492
0.718225 0.168287 1.09387
0.719855 0.165657 1.09635
0.723175 0.163395 1.1014
0.724616 0.160689 1.1036
0.725984 0.157955 1.10568
0.723256 0.154335 1.10153
0.723859 0.151435 1.10245
0.718669 0.147342 1.09454
0.721952 0.144995 1.09954
0.719249 0.141442 1.09543
0.720488 0.138671 1.09731
0.719387 0.135449 1.09564
0.72147 0.132823 1.09881
0.719712 0.129488 1.09613
0.718816 0.126319 1.09477
0.717771 0.123132 1.09317
0.720253 0.120544 1.09695
0.718654 0.11727 1.09452
0.720203 0.114509 1.09688
0.720688 0.111571 1.09762
0.722379 0.10881 1.10019
0.721934 0.105723 1.09951
0.721646 0.102661 1.09908
0.721396 0.099607 1.0987
0.720934 0.0965267 1.09799
0.719752 0.093357 1.09619
0.719415 0.0903031 1.09568
0.718992 0.0872417 1.09503
0.719534 0.0842969 1.09586
0.71899 0.0812248 1.09503
0.720497 0.0783804 1.09733
0.721371 0.0754572 1.09866
0.721524 0.0724543 1.09889
0.720108 0.069299 1.09673
0.719654 0.0662443 1.09604
0.719014 0.0631769 1.09507
0.719358 0.0601973 1.09559
0.715692 0.056896 1.09001
0.716982 0.0539986 1.09197
0.715017 0.050859 1.08898
0.718343 0.0480899 1.09405
0.718488 0.0450934 1.09427
0.719417 0.0421416 1.09568
0.718905 0.0391036 1.0949
0.719924 0.0361468 1.09645
0.719251 0.0331036 1.09543
0.719421 0.0301013 1.09569
0.718193 0.0270449 1.09382
0.720388 0.0241134 1.09716
0.718114 0.0210326 1.0937
0.716554 0.0179888 1.09132
0.713978 0.0149368 1.0874
0.717212 0.0120036 1.09232
0.716405 0.00899253 1.09109
0.718796 0.00601503 1.09474
0.718003 0.0030042 1.09353
0.718296 0 1.09397
0.715695 -0.00299454 1.09001
0.712986 -0.00596641 1.08589
0.713997 -0.0089623 1.08743
0.714836 -0.0119638 1.0887
0.718652 -0.0150346 1.09452
0.717011 -0.0180003 1.09202
0.717281 -0.0210082 1.09243
0.713671 -0.0238886 1.08693
0.714776 -0.0269162 1.08861
0.711914 -0.0297872 1.08425
0.714133 -0.0328681 1.08763
0.714074 -0.0358531 1.08754
0.717437 -0.0390237 1.09267
0.71473 -0.041867 1.08854
0.713825 -0.0448008 1.08717
0.709807 -0.0475184 1.08104
0.711416 -0.0506028 1.0835
0.711014 -0.0535491 1.08288
0.715502 -0.0568809 1.08972
0.714691 -0.0598068 1.08848
0.714942 -0.0628192 1.08887
0.711553 -0.0654986 1.0837
0.712193 -0.0685375 1.08468
0.712102 -0.0715081 1.08454
0.713868 -0.0746724 1.08723
0.712419 -0.0775016 1.08502
0.713109 -0.0805604 1.08607
0.710118 -0.0831937 1.08152
0.710381 -0.0861968 1.08192
0.70739 -0.0887938 1.07736
0.709129 -0.0919791 1.08001
0.708962 -0.0949238 1.07976
0.711963 -0.0983045 1.08433
0.711522 -0.101221 1.08366
0.712829 -0.104389 1.08565
0.711317 -0.107144 1.08334
0.71177 -0.11019 1.08403
0.709708 -0.112841 1.08089
0.709152 -0.115719 1.08005
0.707972 -0.118489 1.07825
0.709665 -0.121742 1.08083
0.710567 -0.12487 1.0822
0.711419 -0.127996 1.0835
0.710404 -0.130786 1.08195
0.711846 -0.13403 1.08415
0.712135 -0.137064 1.08459
0.71184 -0.139985 1.08414
0.708685 -0.14233 1.07934
0.707304 -0.145012 1.07723
0.704866 -0.147462 1.07352
0.70607 -0.150668 1.07535
0.706329 -0.153678 1.07575
0.708191 -0.157047 1.07858
0.706057 -0.159527 1.07533
0.70596 -0.162459 1.07519
0.705161 -0.165226 1.07397
0.706272 -0.168442 1.07566
0.704823 -0.171045 1.07345
0.705127 -0.174069 1.07392
0.704081 -0.176757 1.07232
0.706628 -0.180353 1.0762
0.705948 -0.183133 1.07517
0.706832 -0.18632 1.07651
0.70479 -0.18873 1.0734
0.706713 -0.192202 1.07633
0.703609 -0.194302 1.0716
0.705284 -0.197715 1.07416
0.702549 -0.199889 1.06999
0.705563 -0.203698 1.07458
0.704711 -0.206401 1.07328
0.708451 -0.21046 1.07898
0.708096 -0.213318 1.07844
0.707334 -0.216048 1.07728
0.702133 -0.217397 1.06936
0.701832 -0.22024 1.0689
0.700965 -0.222901 1.06758
0.704691 -0.227034 1.07325
0.703945 -0.229739 1.07212
0.705756 -0.233283 1.07487
0.701883 -0.23494 1.06898
0.702413 -0.238056 1.06978
0.701193 -0.240577 1.06793
0.70245 -0.243947 1.06984
0.700887 -0.246337 1.06746
0.70007 -0.248979 1.06621
0.699234 -0.251607 1.06494
0.700067 -0.254836 1.06621
0.699603 -0.257594 1.0655
0.700684 -0.260924 1.06715
0.699283 -0.263328 1.06502
0.699453 -0.266319 1.06528
0.699297 -0.269185 1.06504
0.702835 -0.273488 1.07043
0.70313 -0.276545 1.07088
0.702054 -0.279059 1.06924
0.698838 -0.280705 1.06434
0.700013 -0.284106 1.06613
0.699684 -0.2869 1.06563
0.70186 -0.290728 1.06894
0.701309 -0.293435 1.0681
0.70079 -0.29615 1.06731
0.697251 -0.297572 1.06192
0.697561 -0.300623 1.06239
0.698097 -0.303775 1.06321
0.699533 -0.307326 1.0654
0.699561 -0.310266 1.06544
0.698438 -0.31269 1.06373
0.695804 -0.314422 1.05972
0.689581 -0.314495 1.05024
0.68178 -0.31379 1.03836
0.675507 -0.313729 1.0288
0.672552 -0.315171 1.02431
0.673751 -0.318552 1.02613
0.675067 -0.321999 1.02814
0.673169 -0.32391 1.02525
0.67113 -0.325737 1.02214
0.672739 -0.329332 1.02459
0.682671 -0.337051 1.03972
0.726312 0.641575 1.10157
0.707628 0.622123 1.07324
0.722551 0.632232 1.09587
0.727083 0.633168 1.10274
0.719797 0.623824 1.09169
0.721537 0.622326 1.09433
0.72567 0.622867 1.1006
0.724311 0.618683 1.09854
0.720344 0.612292 1.09252
0.721916 0.610621 1.09491
0.723654 0.609076 1.09754
0.715227 0.599002 1.08476
0.710604 0.59217 1.07775
0.721751 0.598452 1.09466
0.726892 0.599686 1.10245
0.728795 0.598219 1.10534
0.72581 0.592745 1.10081
0.72065 0.585528 1.09299
0.719441 0.581548 1.09115
0.730966 0.587819 1.10863
0.733446 0.586757 1.11239
0.728779 0.579987 1.10532
0.726096 0.574826 1.10125
0.727829 0.573166 1.10387
0.733146 0.574297 1.11194
0.733541 0.571551 1.11254
0.728469 0.564564 1.10484
0.720696 0.555537 1.09306
0.721244 0.552953 1.09389
0.719707 0.548776 1.09155
0.725458 0.550139 1.10028
0.725734 0.547324 1.1007
0.725466 0.544099 1.10029
0.725807 0.541331 1.10081
0.725981 0.538436 1.10107
0.725873 0.535331 1.10091
0.726622 0.532856 1.10204
0.725157 0.52876 1.09982
0.726894 0.526998 1.10246
0.724006 0.521888 1.09808
0.724766 0.519416 1.09923
0.725317 0.516789 1.10006
0.722535 0.511796 1.09585
0.721249 0.507879 1.09389
0.724227 0.506959 1.09841
0.726048 0.505209 1.10117
0.728508 0.503885 1.1049
0.726417 0.499412 1.10173
0.729627 0.498579 1.1066
0.727959 0.494405 1.10407
0.726763 0.490565 1.10226
0.727668 0.488144 1.10363
0.730268 0.486846 1.10757
0.728025 0.482317 1.10417
0.727702 0.47907 1.10368
0.725154 0.474372 1.09982
0.727027 0.472568 1.10266
0.72428 0.467764 1.09849
0.726074 0.465897 1.10121
0.726908 0.463404 1.10248
0.731327 0.463174 1.10918
0.729446 0.458943 1.10633
0.729358 0.455849 1.10619
0.725537 0.450438 1.1004
0.729087 0.449604 1.10578
0.731983 0.44834 1.11017
0.733296 0.446088 1.11217
0.72824 0.439978 1.1045
0.726852 0.436111 1.10239
0.726156 0.432668 1.10134
0.729362 0.431539 1.1062
0.728706 0.428115 1.1052
0.729878 0.425762 1.10698
0.729582 0.42255 1.10653
0.731071 0.420366 1.10879
0.729163 0.416231 1.1059
0.729285 0.413262 1.10608
0.725589 0.408144 1.10048
0.727962 0.406445 1.10408
0.727171 0.402974 1.10288
0.730447 0.401746 1.10784
0.72634 0.396461 1.10162
0.725107 0.392766 1.09975
0.721308 0.387703 1.09398
0.723825 0.38604 1.0978
0.722042 0.38208 1.0951
0.72477 0.380504 1.09923
0.723354 0.376747 1.09709
0.726591 0.375405 1.102
0.724248 0.371177 1.09844
0.724888 0.368485 1.09941
0.722544 0.364283 1.09586
0.725165 0.362583 1.09983
0.726135 0.360042 1.10131
0.72865 0.358253 1.10512
0.725707 0.353782 1.10066
0.724827 0.350333 1.09932
0.723278 0.346571 1.09697
0.725723 0.344719 1.10068
0.726314 0.341973 1.10158
0.729504 0.340435 1.10641
0.72953 0.337407 1.10645
0.729429 0.334321 1.1063
0.726288 0.329856 1.10154
0.726249 0.326812 1.10148
0.722618 0.322167 1.09597
0.724194 0.319852 1.09836
0.72359 0.316571 1.09745
0.727474 0.315239 1.10333
0.726006 0.311578 1.10111
0.726925 0.308943 1.1025
0.726645 0.305796 1.10208
0.726146 0.302561 1.10132
0.723279 0.298353 1.09697
0.722885 0.295178 1.09638
0.723209 0.292297 1.09687
0.725294 0.290117 1.10003
0.724805 0.286902 1.09929
0.726188 0.284424 1.10138
0.725567 0.281157 1.10044
0.72754 0.27889 1.10344
0.72762 0.275889 1.10356
0.727126 0.272672 1.10281
0.725593 0.269074 1.10048
0.723505 0.265285 1.09732
0.723246 0.262177 1.09692
0.722935 0.259052 1.09645
0.721347 0.255477 1.09404
0.721869 0.252654 1.09483
0.721909 0.24966 1.0949
0.725953 0.248034 1.10103
0.724986 0.244683 1.09956
0.726105 0.242035 1.10126
0.725126 0.238687 1.09977
0.724382 0.235424 1.09865
0.722672 0.231857 1.09605
0.722902 0.228919 1.0964
0.723803 0.226189 1.09777
0.724791 0.223477 1.09927
0.723434 0.220045 1.09721
0.722788 0.216836 1.09623
0.721664 0.213492 1.09452
0.722722 0.210794 1.09613
0.722668 0.207767 1.09605
0.723402 0.204964 1.09716
0.722539 0.201709 1.09585
0.722562 0.198704 1.09589
0.721179 0.195319 1.09379
0.722338 0.192624 1.09555
0.723476 0.189912 1.09727
0.72461 0.187191 1.09899
0.722778 0.183706 1.09621
0.72366 0.180915 1.09755
0.723451 0.177848 1.09723
0.723073 0.174743 1.09666
0.720231 0.171055 1.09235
0.720258 0.16806 1.09239
0.721787 0.16541 1.09471
0.723637 0.162818 1.09752
0.724658 0.160029 1.09906
0.727707 0.15767 1.10369
0.726012 0.154278 1.10112
0.725634 0.151174 1.10054
0.720955 0.147195 1.09345
0.724111 0.144822 1.09824
0.722347 0.14146 1.09556
0.724026 0.138772 1.09811
0.721881 0.135353 1.09485
0.724181 0.132767 1.09834
0.721402 0.129251 1.09413
0.722268 0.126397 1.09544
0.720035 0.123006 1.09205
0.722826 0.120471 1.09629
0.720219 0.117036 1.09233
0.722641 0.114418 1.09601
0.722989 0.111461 1.09653
0.722694 0.108404 1.09609
0.722183 0.105318 1.09531
0.722808 0.102398 1.09626
0.722777 0.0993819 1.09621
0.72177 0.096236 1.09468
0.719837 0.092979 1.09175
0.719862 0.0899828 1.09179
0.717327 0.086677 1.08795
0.718137 0.0837827 1.08917
0.718245 0.0808025 1.08934
0.721365 0.0781478 1.09407
0.722389 0.0752488 1.09562
0.722331 0.0722331 1.09554
0.719945 0.0689947 1.09192
0.719291 0.065935 1.09092
0.719257 0.062935 1.09087
0.722136 0.060178 1.09524
0.719428 0.0569547 1.09113
0.71976 0.053982 1.09164
0.715621 0.0506898 1.08536
0.719222 0.0479482 1.09082
0.720648 0.0450405 1.09298
0.723128 0.0421825 1.09674
0.72204 0.0391105 1.09509
0.723204 0.0361602 1.09686
0.721517 0.0330695 1.0943
0.722764 0.0301152 1.09619
0.721861 0.0270698 1.09482
0.724641 0.0241547 1.09904
0.721268 0.021037 1.09392
0.719392 0.0179848 1.09108
0.717879 0.0149558 1.08878
0.719727 0.0119954 1.09159
0.717807 0.00897259 1.08867
0.718509 0.00598757 1.08974
0.718353 0.00299314 1.0895
0.719416 0 1.09111
0.71864 -0.00299433 1.08994
0.716123 -0.00596769 1.08612
0.717243 -0.00896554 1.08782
0.718011 -0.0119669 1.08898
0.720484 -0.0150101 1.09273
0.718737 -0.0179684 1.09008
0.717531 -0.020928 1.08826
0.715945 -0.0238648 1.08585
0.716882 -0.0268831 1.08727
0.715344 -0.029806 1.08494
0.71479 -0.0327612 1.0841
0.713272 -0.0356636 1.0818
0.714962 -0.0387271 1.08436
0.713775 -0.0416369 1.08256
0.714335 -0.044646 1.08341
0.711836 -0.0474558 1.07962
0.713511 -0.0505404 1.08216
0.712587 -0.053444 1.08076
0.714645 -0.0565761 1.08388
0.714556 -0.0595463 1.08374
0.71471 -0.0625371 1.08398
0.712902 -0.0653494 1.08124
0.712355 -0.0682674 1.08041
0.712779 -0.0712779 1.08105
0.713174 -0.074289 1.08165
0.712647 -0.0772034 1.08085
0.714278 -0.0803562 1.08332
0.712718 -0.0831505 1.08096
0.712809 -0.0861311 1.08109
0.710775 -0.0888468 1.07801
0.712156 -0.0919869 1.0801
0.712054 -0.0949405 1.07995
0.712512 -0.0979704 1.08064
0.712777 -0.100977 1.08105
0.714101 -0.10414 1.08305
0.713625 -0.107044 1.08233
0.714065 -0.110085 1.083
0.7118 -0.112702 1.07956
0.711323 -0.11559 1.07884
0.710212 -0.118369 1.07715
0.711121 -0.121483 1.07853
0.711047 -0.124433 1.07842
0.711468 -0.127471 1.07906
0.709211 -0.130022 1.07564
0.711643 -0.133433 1.07932
0.710218 -0.136125 1.07716
0.712066 -0.139446 1.07997
0.708646 -0.141729 1.07478
0.709293 -0.144814 1.07576
0.7077 -0.147438 1.07335
0.70951 -0.150771 1.07609
0.709725 -0.153774 1.07642
0.709908 -0.156771 1.07669
0.707566 -0.159202 1.07314
0.708285 -0.162315 1.07423
0.706824 -0.164926 1.07202
0.707085 -0.167933 1.07241
0.703656 -0.17005 1.06721
0.70538 -0.173406 1.06983
0.70562 -0.176405 1.07019
0.70897 -0.180196 1.07527
0.707831 -0.182856 1.07354
0.706957 -0.185576 1.07222
0.70534 -0.188091 1.06977
0.705254 -0.191006 1.06964
0.70429 -0.19368 1.06817
0.706041 -0.197103 1.07083
0.705681 -0.199943 1.07028
0.707475 -0.203399 1.073
0.707046 -0.206222 1.07235
0.709146 -0.209789 1.07554
0.708224 -0.212467 1.07414
0.707133 -0.215086 1.07249
0.703341 -0.216863 1.06673
0.70334 -0.219794 1.06673
0.701911 -0.222272 1.06456
0.706163 -0.226561 1.07101
0.70753 -0.229947 1.07309
0.70802 -0.233057 1.07383
0.704163 -0.234721 1.06798
0.702983 -0.237257 1.06619
0.701821 -0.239789 1.06443
0.701734 -0.242683 1.0643
0.700981 -0.245343 1.06315
0.701721 -0.248526 1.06428
0.702953 -0.251891 1.06614
0.70504 -0.255577 1.06931
0.703879 -0.258089 1.06755
0.702978 -0.260688 1.06618
0.701285 -0.262982 1.06362
0.701493 -0.265983 1.06393
0.700023 -0.268342 1.0617
0.701309 -0.271757 1.06365
0.701149 -0.274617 1.06341
0.701061 -0.277503 1.06328
0.700108 -0.280043 1.06183
0.701417 -0.283489 1.06382
0.70078 -0.286152 1.06285
0.700037 -0.288765 1.06172
0.702564 -0.292735 1.06556
0.703396 -0.296012 1.06682
0.701381 -0.298087 1.06376
0.699706 -0.300291 1.06122
0.699415 -0.30308 1.06078
0.69904 -0.30583 1.06021
0.698675 -0.308581 1.05966
0.699025 -0.311649 1.06019
0.696967 -0.313635 1.05707
0.690541 -0.313621 1.04732
0.682412 -0.312772 1.03499
0.677325 -0.313263 1.02728
0.675723 -0.315338 1.02485
0.677234 -0.318864 1.02714
0.677725 -0.321919 1.02788
0.675972 -0.323903 1.02522
0.670776 -0.324208 1.01734
0.672329 -0.32776 1.0197
0.677425 -0.333067 1.02743
0.722186 0.635284 1.09077
0.717499 0.628184 1.08369
0.722918 0.629928 1.09188
0.722336 0.626424 1.091
0.725307 0.625991 1.09548
0.721932 0.620082 1.09039
0.725304 0.619969 1.09548
0.726917 0.618332 1.09792
0.724688 0.613429 1.09455
0.724131 0.609953 1.09371
0.727144 0.609473 1.09826
0.727743 0.606956 1.09916
0.717546 0.595473 1.08376
0.720761 0.595151 1.08862
0.725972 0.596442 1.09649
0.726427 0.593801 1.09718
0.727226 0.591437 1.09838
0.719888 0.582482 1.0873
0.724692 0.583362 1.09456
0.728085 0.583072 1.09968
0.732954 0.58393 1.10703
0.725375 0.574882 1.09559
0.722674 0.569743 1.09151
0.723206 0.567162 1.09231
0.731758 0.570832 1.10523
0.72909 0.565725 1.1012
0.724859 0.559435 1.09481
0.720024 0.552715 1.0875
0.721892 0.551154 1.09033
0.725108 0.550601 1.09518
0.724456 0.547099 1.0942
0.725662 0.544999 1.09602
0.7256 0.541942 1.09593
0.727637 0.540444 1.099
0.725465 0.535821 1.09572
0.724651 0.532213 1.09449
0.723374 0.528273 1.09256
0.724633 0.526186 1.09447
0.725116 0.523528 1.0952
0.726462 0.521485 1.09723
0.729531 0.520661 1.10186
0.729175 0.517381 1.10133
0.72872 0.514035 1.10064
0.723148 0.507104 1.09222
0.723386 0.504269 1.09258
0.724627 0.502127 1.09446
0.729014 0.502142 1.10108
0.729835 0.49968 1.10232
0.731405 0.497719 1.10469
0.728344 0.492615 1.10007
0.72923 0.490188 1.10141
0.729245 0.487172 1.10143
0.730613 0.485054 1.1035
0.724774 0.478171 1.09468
0.725693 0.475766 1.09607
0.725712 0.472767 1.0961
0.728277 0.471416 1.09997
0.729858 0.469411 1.10236
0.731143 0.467203 1.1043
0.73172 0.464536 1.10517
0.735564 0.463924 1.11098
0.733341 0.459479 1.10762
0.729905 0.454298 1.10243
0.724888 0.448168 1.09485
0.727172 0.446562 1.0983
0.730536 0.445596 1.10338
0.730402 0.442484 1.10318
0.726497 0.437104 1.09728
0.725297 0.433373 1.09547
0.726413 0.431025 1.09715
0.729857 0.43004 1.10236
0.728829 0.42641 1.1008
0.727417 0.422566 1.09867
0.727174 0.419408 1.0983
0.731275 0.418738 1.1045
0.732434 0.416363 1.10625
0.731532 0.412815 1.10489
0.727372 0.407449 1.0986
0.72708 0.404268 1.09816
0.726785 0.401089 1.09772
0.729159 0.399374 1.1013
0.727905 0.395666 1.09941
0.728232 0.392822 1.0999
0.724913 0.388024 1.09489
0.725601 0.385382 1.09593
0.722289 0.380625 1.09093
0.725359 0.379233 1.09556
0.727605 0.377388 1.09895
0.729952 0.375577 1.1025
0.727173 0.37113 1.0983
0.724084 0.366549 1.09364
0.722118 0.362557 1.09067
0.723414 0.360206 1.09262
0.727349 0.359147 1.09857
0.729424 0.357145 1.1017
0.727563 0.353215 1.09889
0.725814 0.349355 1.09625
0.724583 0.345755 1.09439
0.726101 0.343467 1.09668
0.726584 0.34068 1.09741
0.72968 0.339104 1.10209
0.730048 0.336246 1.10265
0.729054 0.332763 1.10114
0.725616 0.328183 1.09595
0.726201 0.325435 1.09684
0.724628 0.321723 1.09446
0.725099 0.318923 1.09517
0.725138 0.315932 1.09523
0.728962 0.314573 1.101
0.728131 0.311193 1.09975
0.728188 0.308196 1.09984
0.728079 0.305129 1.09967
0.729873 0.302852 1.10238
0.726839 0.298577 1.0978
0.726872 0.295575 1.09785
0.727456 0.292794 1.09873
0.729325 0.290519 1.10155
0.728227 0.287061 1.0999
0.728961 0.284325 1.101
0.726379 0.280304 1.0971
0.727599 0.277756 1.09895
0.726064 0.274157 1.09663
0.726817 0.271426 1.09777
0.725937 0.268085 1.09644
0.7255 0.264913 1.09578
0.724502 0.261542 1.09427
0.724691 0.258604 1.09455
0.722617 0.254865 1.09142
0.72347 0.252164 1.09271
0.723885 0.249305 1.09334
0.727029 0.247371 1.09809
0.72545 0.243823 1.0957
0.726548 0.241178 1.09736
0.725907 0.237953 1.09639
0.725771 0.234897 1.09619
0.722045 0.230695 1.09056
0.723388 0.228122 1.09259
0.726213 0.226 1.09685
0.728743 0.223763 1.10067
0.726117 0.219944 1.09671
0.725085 0.216623 1.09515
0.723807 0.213238 1.09322
0.724776 0.210516 1.09468
0.724155 0.207331 1.09374
0.725882 0.204813 1.09635
0.725497 0.201694 1.09577
0.724423 0.19839 1.09415
0.722297 0.19481 1.09094
0.723853 0.192226 1.09329
0.725403 0.189628 1.09563
0.72582 0.186726 1.09626
0.725528 0.18364 1.09582
0.726548 0.180883 1.09736
0.728226 0.178279 1.09989
0.72741 0.175061 1.09866
0.72565 0.171627 1.096
0.724795 0.168417 1.09471
0.725405 0.165549 1.09563
0.725962 0.162664 1.09647
0.726037 0.159668 1.09659
0.727918 0.157061 1.09943
0.726082 0.153652 1.09665
0.727704 0.150976 1.0991
0.725302 0.147468 1.09548
0.728756 0.145146 1.10069
0.725389 0.141466 1.09561
0.726471 0.138663 1.09724
0.722473 0.134902 1.0912
0.723773 0.132141 1.09317
0.722284 0.128872 1.09092
0.725215 0.126386 1.09535
0.723631 0.123107 1.09295
0.726092 0.120513 1.09667
0.72372 0.117117 1.09309
0.72626 0.114514 1.09692
0.72447 0.111226 1.09422
0.724408 0.10821 1.09413
0.723623 0.10509 1.09294
0.724659 0.102234 1.09451
0.723593 0.0990812 1.0929
0.723153 0.0960203 1.09223
0.721929 0.0928623 1.09038
0.722084 0.089886 1.09062
0.718877 0.0865039 1.08577
0.720188 0.0836734 1.08775
0.720454 0.0807148 1.08815
0.723695 0.078075 1.09305
0.722613 0.0749598 1.09141
0.724948 0.072194 1.09494
0.722943 0.0689946 1.09191
0.723733 0.0660669 1.09311
0.721877 0.0629021 1.0903
0.724103 0.0600915 1.09367
0.721962 0.0569182 1.09043
0.722231 0.0539425 1.09084
0.717994 0.0506468 1.08444
0.72218 0.0479456 1.09076
0.722154 0.0449473 1.09072
0.725219 0.0421289 1.09535
0.72387 0.0390469 1.09331
0.724413 0.0360704 1.09413
0.721527 0.0329328 1.08977
0.721931 0.0299557 1.09039
0.722209 0.0269705 1.09081
0.723429 0.0240142 1.09265
0.721809 0.0209654 1.0902
0.721392 0.01796 1.08957
0.720768 0.0149537 1.08863
0.721245 0.0119709 1.08935
0.7192 0.0089527 1.08626
0.718379 0.00596165 1.08502
0.718218 0.00298016 1.08478
0.719742 0 1.08708
0.721387 -0.00299331 1.08956
0.720557 -0.00597973 1.08831
0.720846 -0.00897319 1.08875
0.719911 -0.0119487 1.08733
0.720533 -0.0149488 1.08827
0.719002 -0.0179005 1.08596
0.717175 -0.0208308 1.0832
0.716524 -0.023785 1.08222
0.717864 -0.0268082 1.08424
0.71718 -0.0297585 1.08321
0.717099 -0.0327306 1.08309
0.714461 -0.0355748 1.0791
0.715187 -0.0385786 1.0802
0.71376 -0.0414633 1.07804
0.715675 -0.0445441 1.08094
0.715177 -0.0474806 1.08018
0.716679 -0.0505541 1.08245
0.715077 -0.0534082 1.08003
0.716424 -0.0564816 1.08207
0.715712 -0.0593952 1.08099
0.716227 -0.0624098 1.08177
0.714296 -0.0652055 1.07885
0.714729 -0.0682107 1.07951
0.714288 -0.0711324 1.07884
0.715624 -0.0742349 1.08086
0.714261 -0.0770572 1.0788
0.716455 -0.0802668 1.08211
0.713634 -0.0829118 1.07785
0.714476 -0.0859743 1.07913
0.712626 -0.0887086 1.07633
0.714309 -0.0918821 1.07887
0.712617 -0.0946213 1.07632
0.713562 -0.0977077 1.07775
0.713607 -0.100675 1.07781
0.715799 -0.103954 1.08112
0.715476 -0.106876 1.08064
0.71658 -0.110014 1.0823
0.714692 -0.11269 1.07945
0.713306 -0.115431 1.07736
0.711185 -0.118039 1.07415
0.711852 -0.121103 1.07516
0.711467 -0.12399 1.07458
0.712856 -0.12719 1.07668
0.711619 -0.129922 1.07481
0.713013 -0.133135 1.07692
0.710988 -0.135707 1.07386
0.712567 -0.138965 1.07624
0.712177 -0.141844 1.07565
0.712812 -0.144929 1.07661
0.711212 -0.147554 1.07419
0.711786 -0.150627 1.07506
0.713 -0.153842 1.0769
0.713884 -0.156995 1.07823
0.71107 -0.159327 1.07398
0.70948 -0.161914 1.07158
0.707412 -0.164378 1.06846
0.707895 -0.167428 1.06919
0.70644 -0.170015 1.06699
0.708338 -0.173411 1.06986
0.70871 -0.176442 1.07042
0.709656 -0.179622 1.07185
0.709037 -0.182408 1.07091
0.706642 -0.184724 1.06729
0.706871 -0.187717 1.06764
0.7058 -0.190361 1.06602
0.706209 -0.193402 1.06664
0.707471 -0.196683 1.06854
0.707005 -0.199487 1.06784
0.708332 -0.2028 1.06985
0.707241 -0.205423 1.0682
0.710416 -0.209293 1.07299
0.70892 -0.211793 1.07073
0.70868 -0.214662 1.07037
0.704621 -0.216357 1.06424
0.706002 -0.21971 1.06633
0.703915 -0.221982 1.06317
0.707471 -0.226039 1.06855
0.708256 -0.229228 1.06973
0.709371 -0.232532 1.07142
0.706336 -0.234468 1.06683
0.704334 -0.236726 1.06381
0.702704 -0.239094 1.06135
0.703651 -0.242336 1.06278
0.704026 -0.245387 1.06334
0.704935 -0.248629 1.06472
0.704661 -0.251456 1.0643
0.707125 -0.255269 1.06802
0.704584 -0.257275 1.06418
0.703633 -0.259848 1.06275
0.701811 -0.262087 1.06
0.704756 -0.266111 1.06444
0.702132 -0.268034 1.06048
0.7021 -0.270935 1.06043
0.699031 -0.272651 1.0558
0.701076 -0.276358 1.05889
0.700082 -0.278871 1.05739
0.702937 -0.282925 1.0617
0.699556 -0.284467 1.05659
0.7007 -0.28784 1.05832
0.701571 -0.291108 1.05963
0.703938 -0.295012 1.06321
0.703165 -0.297605 1.06204
0.70142 -0.299777 1.05941
0.701007 -0.302509 1.05878
0.699399 -0.304718 1.05635
0.699684 -0.307745 1.05678
0.70138 -0.311401 1.05935
0.700702 -0.314008 1.05832
0.693718 -0.313756 1.04777
0.683707 -0.312065 1.03265
0.679499 -0.312964 1.0263
0.677543 -0.314875 1.02334
0.678624 -0.318193 1.02497
0.676912 -0.320199 1.02239
0.675868 -0.322509 1.02081
0.672208 -0.323552 1.01528
0.673852 -0.32714 1.01777
0.677083 -0.331518 1.02265
0.740321 0.648546 1.11354
0.714161 0.622678 1.07419
0.717463 0.622592 1.07916
0.731248 0.631532 1.09989
0.727795 0.625543 1.0947
0.724816 0.619987 1.09022
0.725167 0.617291 1.09075
0.724074 0.613368 1.0891
0.724983 0.611143 1.09047
0.731939 0.613982 1.10093
0.73479 0.613337 1.10522
0.730894 0.607065 1.09936
0.725072 0.599233 1.0906
0.722421 0.594057 1.08662
0.728123 0.595737 1.09519
0.727219 0.591992 1.09383
0.722713 0.585338 1.08706
0.718106 0.578639 1.08013
0.724686 0.580947 1.09002
0.731573 0.583445 1.10038
0.734791 0.582975 1.10522
0.72828 0.5748 1.09543
0.724987 0.569204 1.09048
0.727265 0.567988 1.0939
0.729707 0.56688 1.09758
0.729337 0.563579 1.09702
0.722083 0.55499 1.08611
0.719494 0.550027 1.08221
0.726812 0.552617 1.09322
0.726498 0.549377 1.09275
0.727458 0.547097 1.09419
0.72387 0.541407 1.0888
0.728886 0.542146 1.09634
0.729332 0.539464 1.09701
0.726795 0.534585 1.0932
0.721588 0.527773 1.08536
0.721113 0.524446 1.08465
0.723784 0.523397 1.08867
0.726844 0.522607 1.09327
0.726605 0.519433 1.09291
0.727961 0.517394 1.09495
0.728842 0.515009 1.09628
0.72962 0.512543 1.09744
0.724423 0.505898 1.08963
0.72459 0.503021 1.08988
0.724548 0.499998 1.08982
0.727833 0.499258 1.09476
0.726585 0.495399 1.09288
0.729827 0.494594 1.09776
0.727997 0.490345 1.095
0.732621 0.490432 1.10196
0.731733 0.486814 1.10062
0.735294 0.486145 1.10598
0.728678 0.47876 1.09603
0.727762 0.47515 1.09465
0.723665 0.469485 1.08849
0.726419 0.46827 1.09263
0.727497 0.465959 1.09425
0.732615 0.466209 1.10195
0.735914 0.465268 1.10691
0.738629 0.463932 1.111
0.735635 0.459012 1.10649
0.731047 0.453128 1.09959
0.728197 0.448353 1.0953
0.730948 0.447026 1.09944
0.730677 0.443841 1.09903
0.730561 0.440752 1.09886
0.726688 0.435412 1.09304
0.728285 0.43336 1.09544
0.729882 0.431294 1.09784
0.731934 0.429482 1.10093
0.730429 0.425581 1.09866
0.727858 0.421075 1.09479
0.727972 0.418133 1.09497
0.731038 0.416873 1.09958
0.733142 0.415043 1.10274
0.735419 0.413293 1.10617
0.731086 0.407837 1.09965
0.73058 0.404536 1.09889
0.727699 0.399934 1.09456
0.729778 0.398061 1.09768
0.729834 0.395076 1.09777
0.729776 0.392029 1.09768
0.727063 0.387566 1.0936
0.727371 0.384725 1.09406
0.725007 0.380479 1.09051
0.728501 0.379302 1.09576
0.729531 0.376824 1.09731
0.731642 0.374891 1.10049
0.729277 0.370666 1.09693
0.727629 0.366821 1.09445
0.725063 0.362531 1.09059
0.725449 0.359727 1.09117
0.727998 0.357983 1.09501
0.732453 0.357147 1.10171
0.731692 0.353752 1.10056
0.729819 0.34983 1.09774
0.726613 0.345291 1.09292
0.726766 0.342361 1.09315
0.72692 0.33943 1.09338
0.728341 0.337083 1.09552
0.728029 0.33393 1.09505
0.727891 0.330859 1.09484
0.726041 0.327019 1.09206
0.728391 0.325067 1.0956
0.726945 0.321418 1.09342
0.728531 0.319108 1.09581
0.72721 0.315525 1.09382
0.729164 0.31336 1.09676
0.728748 0.31017 1.09613
0.728137 0.306901 1.09521
0.728874 0.304199 1.09632
0.730203 0.301737 1.09832
0.730188 0.298713 1.0983
0.72937 0.295365 1.09707
0.728047 0.29182 1.09508
0.729809 0.289511 1.09773
0.730616 0.286812 1.09894
0.731422 0.284106 1.10016
0.730091 0.280572 1.09815
0.728813 0.277069 1.09623
0.727445 0.273543 1.09417
0.727446 0.270538 1.09417
0.72706 0.26739 1.09359
0.727639 0.264596 1.09447
0.727186 0.261426 1.09378
0.726746 0.258265 1.09312
0.725218 0.254725 1.09082
0.724636 0.251526 1.08995
0.725017 0.248663 1.09052
0.72559 0.245861 1.09138
0.724255 0.242416 1.08938
0.72501 0.239673 1.09051
0.726269 0.237088 1.0924
0.727911 0.234616 1.09487
0.725068 0.230703 1.0906
0.725996 0.227999 1.09199
0.72748 0.225459 1.09423
0.729113 0.222952 1.09668
0.726052 0.219016 1.09208
0.725976 0.215993 1.09196
0.724522 0.212566 1.08978
0.726928 0.210268 1.0934
0.725996 0.206999 1.09199
0.729403 0.204956 1.09712
0.726688 0.20119 1.09303
0.725394 0.197835 1.09109
0.722632 0.194095 1.08693
0.724108 0.1915 1.08915
0.724815 0.188691 1.09022
0.72665 0.186167 1.09298
0.728022 0.18351 1.09504
0.729318 0.180823 1.09699
0.729272 0.177798 1.09692
0.729128 0.17475 1.0967
0.730238 0.171998 1.09838
0.730148 0.16896 1.09824
0.729886 0.165883 1.09785
0.72797 0.16244 1.09496
0.726858 0.159188 1.09329
0.726893 0.156192 1.09334
0.727105 0.153233 1.09366
0.728266 0.150468 1.09541
0.727617 0.147327 1.09443
0.729538 0.144702 1.09732
0.727963 0.141381 1.09495
0.728684 0.13851 1.09604
0.724465 0.134715 1.08969
0.725045 0.131826 1.09056
0.724887 0.128802 1.09033
0.727032 0.126179 1.09355
0.725437 0.122905 1.09115
0.726635 0.120105 1.09296
0.725682 0.116949 1.09152
0.725518 0.113924 1.09127
0.724544 0.110777 1.08981
0.727111 0.108165 1.09367
0.726924 0.105134 1.09339
0.726772 0.102108 1.09316
0.724394 0.0987809 1.08958
0.726047 0.0960062 1.09207
0.724297 0.0927818 1.08944
0.724263 0.0897846 1.08939
0.720596 0.0863525 1.08387
0.721337 0.0834604 1.08499
0.721005 0.0804427 1.08449
0.725165 0.0779102 1.09074
0.723493 0.074741 1.08823
0.72455 0.0718562 1.08982
0.724284 0.0688369 1.08942
0.725719 0.0659744 1.09158
0.724302 0.0628527 1.08945
0.725905 0.0599921 1.09186
0.72406 0.0568477 1.08908
0.725155 0.0539371 1.09073
0.723209 0.0508039 1.0878
0.72596 0.0479974 1.09194
0.723785 0.0448627 1.08867
0.725195 0.0419534 1.09079
0.725406 0.0389681 1.09111
0.726769 0.0360381 1.09316
0.726226 0.0330103 1.09234
0.725791 0.0299914 1.09169
0.725372 0.0269766 1.09106
0.723893 0.0239303 1.08883
0.722895 0.0209102 1.08733
0.722227 0.0179064 1.08632
0.721992 0.0149172 1.08597
0.721826 0.011931 1.08572
0.720663 0.00893383 1.08397
0.72077 0.00595678 1.08413
0.719924 0.00297489 1.08286
0.7215 0 1.08523
0.724307 -0.00299301 1.08945
0.722469 -0.00597082 1.08669
0.721692 -0.00894659 1.08552
0.718942 -0.0118833 1.08138
0.721482 -0.0149066 1.0852
0.718489 -0.0178138 1.0807
0.71806 -0.0207703 1.08006
0.717102 -0.0237059 1.07862
0.719982 -0.0267762 1.08295
0.718701 -0.0296984 1.08102
0.718832 -0.0326742 1.08122
0.716391 -0.0355235 1.07755
0.71722 -0.0385283 1.07879
0.71531 -0.0413815 1.07592
0.718729 -0.0445493 1.08106
0.718679 -0.047516 1.08099
0.719981 -0.0505772 1.08295
0.717615 -0.0533763 1.07939
0.718726 -0.0564289 1.08106
0.717863 -0.0593275 1.07976
0.718307 -0.0623324 1.08043
0.7156 -0.0650545 1.07636
0.716283 -0.0680765 1.07738
0.715668 -0.0709753 1.07646
0.716956 -0.0740657 1.0784
0.714934 -0.0768111 1.07536
0.715764 -0.079858 1.0766
0.713529 -0.082557 1.07324
0.714477 -0.0856191 1.07467
0.714079 -0.0885222 1.07407
0.717688 -0.0919353 1.0795
0.717349 -0.0948561 1.07899
0.716984 -0.0977706 1.07844
0.715722 -0.100556 1.07654
0.717285 -0.10374 1.07889
0.718281 -0.106852 1.08039
0.718733 -0.109889 1.08107
0.716877 -0.112567 1.07828
0.715318 -0.115279 1.07593
0.714136 -0.118039 1.07415
0.713545 -0.12089 1.07327
0.71316 -0.123772 1.07269
0.715138 -0.12707 1.07566
0.714883 -0.129979 1.07528
0.715725 -0.133089 1.07655
0.71262 -0.135457 1.07187
0.714502 -0.138767 1.07471
0.715057 -0.141829 1.07554
0.71613 -0.145002 1.07715
0.713354 -0.147387 1.07298
0.714134 -0.150499 1.07415
0.714688 -0.153569 1.07498
0.716448 -0.156908 1.07763
0.7147 -0.159479 1.075
0.713225 -0.162097 1.07278
0.710565 -0.164428 1.06878
0.709361 -0.167081 1.06697
0.708755 -0.169867 1.06606
0.710491 -0.173219 1.06867
0.711393 -0.176378 1.07003
0.710627 -0.179125 1.06888
0.709736 -0.181833 1.06754
0.70836 -0.184408 1.06547
0.708643 -0.18741 1.06589
0.707034 -0.189906 1.06347
0.70827 -0.193165 1.06533
0.709462 -0.196421 1.06712
0.711159 -0.19983 1.06968
0.71136 -0.202826 1.06998
0.710126 -0.205408 1.06812
0.711327 -0.208695 1.06993
0.708902 -0.210913 1.06628
0.709217 -0.213937 1.06676
0.706112 -0.215918 1.06209
0.709104 -0.219764 1.06659
0.707132 -0.222075 1.06362
0.708434 -0.225411 1.06558
0.708371 -0.228318 1.06548
0.708165 -0.231178 1.06517
0.70776 -0.23397 1.06456
0.704092 -0.235667 1.05905
0.704014 -0.23855 1.05893
0.70451 -0.24163 1.05968
0.706791 -0.245332 1.06311
0.707617 -0.248543 1.06435
0.707574 -0.251452 1.06429
0.708666 -0.254768 1.06593
0.70551 -0.256549 1.06118
0.704703 -0.259168 1.05997
0.703621 -0.261677 1.05834
0.707217 -0.265937 1.06375
0.704897 -0.267977 1.06026
0.703989 -0.270541 1.05889
0.700154 -0.271961 1.05312
0.702213 -0.275662 1.05622
0.703531 -0.279087 1.0582
0.704384 -0.282336 1.05949
0.701578 -0.28411 1.05527
0.701011 -0.286777 1.05441
0.703043 -0.290514 1.05747
0.704565 -0.294054 1.05976
0.705287 -0.29727 1.06085
0.703602 -0.299467 1.05831
0.703017 -0.302123 1.05743
0.701591 -0.304409 1.05529
0.703011 -0.307931 1.05742
0.704167 -0.311347 1.05916
0.704195 -0.314269 1.0592
0.694596 -0.312855 1.04476
0.685154 -0.311434 1.03056
0.679389 -0.311621 1.02189
0.678257 -0.313904 1.02019
0.676185 -0.315739 1.01707
0.675339 -0.318135 1.0158
0.675335 -0.320924 1.01579
0.674514 -0.323321 1.01456
0.67369 -0.32571 1.01332
0.673989 -0.328639 1.01377
0.712717 0.621794 1.06761
0.713025 0.619128 1.06807
0.714983 0.617886 1.071
0.721254 0.620338 1.0804
0.723777 0.619529 1.08418
0.725292 0.617842 1.08645
0.72446 0.614151 1.0852
0.723501 0.610361 1.08376
0.728524 0.611601 1.09129
0.733806 0.613015 1.0992
0.740344 0.61543 1.10899
0.734512 0.607559 1.10026
0.723353 0.595352 1.08354
0.721972 0.591244 1.08147
0.730488 0.595213 1.09423
0.729684 0.591554 1.09302
0.723958 0.583933 1.08445
0.722496 0.579781 1.08226
0.727574 0.580861 1.08986
0.728641 0.578715 1.09146
0.730824 0.577441 1.09473
0.725759 0.570453 1.08715
0.723994 0.566086 1.0845
