# .PCD v.7 - Point Cloud Data file format
VERSION .7
FIELDS x y z rgb
SIZE 4 4 4 4
TYPE F F F F
COUNT 1 1 1 1
WIDTH 1324
HEIGHT 1
VIEWPOINT 0 0 0 1 0 0 0
POINTS 1324
DATA ascii
0.609302 -0.448711 1.71927 2.76729e-39
0.605949 -0.450939 1.70981 3.22791e-39
0.604327 -0.454417 1.70523 2.95276e-39
0.601234 -0.456752 1.69651 2.85877e-39
0.598553 -0.459355 1.68894 3.13391e-39
0.595288 -0.461464 1.67973 3.22827e-39
0.593437 -0.464629 1.6745 3.13571e-39
0.591144 -0.467416 1.66803 2.67617e-39
0.588764 -0.470099 1.66132 2.49214e-39
0.585137 -0.471738 1.65108 2.39923e-39
0.582255 -0.473929 1.64295 2.67582e-39
0.578124 -0.475048 1.6313 2.67654e-39
0.575569 -0.47741 1.62409 2.58434e-39
0.563263 -0.471569 1.58936 2.58434e-39
0.548457 -0.463425 1.54758 2.76801e-39
0.541295 -0.461569 1.52737 2.49178e-39
0.539054 -0.463837 1.52105 2.85948e-39
0.537896 -0.46701 1.51778 2.76657e-39
0.539166 -0.472293 1.52137 2.58362e-39
0.540467 -0.477622 1.52504 2.58362e-39
0.537848 -0.479477 1.51765 2.76838e-39
0.532872 -0.479172 1.50361 2.76873e-39
0.530376 -0.481039 1.49656 2.49142e-39
0.530401 -0.485173 1.49663 2.86128e-39
0.530106 -0.489012 1.4958 3.13715e-39
0.527639 -0.490827 1.48884 2.95276e-39
0.526753 -0.494086 1.48634 2.86056e-39
0.525933 -0.497394 1.48403 2.67617e-39
0.526616 -0.502122 1.48595 3.3183e-39
0.525992 -0.505605 1.48419 2.58362e-39
0.525802 -0.509498 1.48366 2.39995e-39
0.524936 -0.512728 1.48121 2.4925e-39
0.525205 -0.517062 1.48197 2.49178e-39
0.524502 -0.520436 1.47999 2.58398e-39
0.524836 -0.524836 1.48093 2.76801e-39
0.523548 -0.527606 1.4773 3.04532e-39
0.523945 -0.532069 1.47842 2.76873e-39
0.523602 -0.535779 1.47745 3.23006e-39
0.524385 -0.540645 1.47966 2.76873e-39
0.523212 -0.543491 1.47635 2.86093e-39
0.523441 -0.547788 1.477 2.76873e-39
0.523056 -0.551439 1.47591 2.67438e-39
0.523986 -0.556482 1.47854 2.39779e-39
0.523728 -0.560268 1.47781 2.9506e-39
0.523325 -0.563893 1.47667 2.76621e-39
0.522694 -0.567265 1.47489 3.0428e-39
0.522571 -0.571182 1.47454 2.76621e-39
0.522228 -0.574856 1.47357 2.2134e-39
0.522766 -0.5795 1.47509 2.67438e-39
0.521942 -0.582633 1.47277 2.4907e-39
0.522696 -0.587527 1.4749 2.5829e-39
0.520901 -0.589547 1.46983 2.12192e-39
0.520267 -0.592863 1.46804 2.21411e-39
0.518243 -0.594574 1.46233 2.2134e-39
0.518666 -0.59908 1.46352 2.30523e-39
0.518172 -0.602526 1.46213 2.30415e-39
0.520822 -0.609644 1.46961 2.58074e-39
0.521539 -0.614526 1.47163 2.21304e-39
0.521526 -0.618554 1.47159 3.87363e-39
0.49447 -0.590298 1.39525 6.45619e-39
0.506206 -0.608232 1.42836 5.44096e-39
0.516851 -0.62503 1.4584 3.22827e-39
0.510602 -0.62143 1.44077 1.47655e-39
0.50473 -0.618196 1.4242 4.52008e-39
0.547815 -0.683707 1.54577 2.85768e-39
0.530661 -0.666411 1.49737 2.8584e-39
0.486284 -0.614451 1.37215 3.69068e-39
0.509652 -0.655831 1.43809 0
0.522168 -0.712415 1.4734 0
0.511814 -0.702256 1.44419 0
0.494099 -0.681781 1.3942 0
0.518367 -0.739376 1.46268 0
0.502452 -0.72057 1.41777 0
0.497016 -0.716628 1.40243 0
0.495191 -0.717835 1.39728 0
0.865421 -1.27465 2.44196 0
0.85754 -1.26969 2.41972 0
0.824188 -1.23309 2.32562 0
0.804323 -1.21584 2.26956 0
0.788573 -1.19814 2.22512 0
0.799461 -1.22088 2.25584 0
0.798941 -1.22628 2.25438 0
0.786403 -1.21313 2.219 0
0.787843 -1.22146 2.22306 0
0.772108 -1.20305 2.17866 0
0.786488 -1.23155 2.21924 0
0.769186 -1.21042 2.17042 0
0.765451 -1.21048 2.15988 0
0.762852 -1.21228 2.15254 0
0.733257 -1.17094 2.06904 0
0.735812 -1.18072 2.07624 0
0.738977 -1.19726 2.08517 0
0.747732 -1.22303 2.10988 0
0.715271 1.14994 2.00276 0
1.30312 1.86447 3.64874 0
1.35306 1.89429 3.78857 9.95784e-39
1.36227 1.88621 3.81434 1.01433e-38
1.33875 1.84336 3.7485 1.0143e-38
1.34752 1.84507 3.77307 1.00508e-38
1.35543 1.84547 3.7952 1.03277e-38
1.34387 1.81939 3.76284 1.04199e-38
1.31739 1.76328 3.68869 1.11571e-38
1.35435 1.79191 3.79217 1.12497e-38
1.34562 1.77001 3.76774 1.12497e-38
1.32384 1.73117 3.70674 1.12504e-38
1.33616 1.737 3.74124 1.13426e-38
1.3408 1.73272 3.75424 1.13426e-38
1.348 1.73166 3.77439 1.17114e-38
1.35702 1.73282 3.79967 1.1711e-38
1.3578 1.71292 3.80184 1.18954e-38
1.34254 1.68334 3.75912 1.18025e-38
1.32591 1.65229 3.71254 1.23546e-38
1.36632 1.69213 3.82569 1.20776e-38
1.35778 1.67112 3.80179 1.18936e-38
1.34246 1.64193 3.75888 1.21713e-38
1.3545 1.64623 3.79259 1.24479e-38
1.35131 1.63197 3.78367 1.24482e-38
1.34929 1.61915 3.77802 1.24482e-38
1.3612 1.62297 3.81136 1.22653e-38
1.36282 1.61442 3.81589 1.2172e-38
1.35057 1.58952 3.78159 1.24486e-38
1.34754 1.57559 3.77312 1.26326e-38
1.35945 1.57905 3.80645 1.25404e-38
1.34957 1.55719 3.77878 1.22638e-38
1.35305 1.55081 3.78855 1.25404e-38
1.34854 1.53526 3.77592 1.31847e-38
1.35736 1.53486 3.80061 1.254e-38
1.34367 1.50905 3.76228 1.30932e-38
1.34468 1.49984 3.76512 1.30936e-38
1.34473 1.48955 3.76524 1.29095e-38
1.34127 1.47539 3.75554 1.2633e-38
1.34663 1.47093 3.77056 1.35549e-38
1.34561 1.45947 3.76771 1.31861e-38
1.34359 1.44694 3.76205 1.34627e-38
1.35138 1.44493 3.78386 1.34624e-38
1.35091 1.43404 3.78255 1.36468e-38
1.35299 1.42584 3.78836 1.34624e-38
1.35533 1.41788 3.79493 1.36471e-38
1.34723 1.39905 3.77225 1.3556e-38
1.34182 1.38311 3.7571 1.36482e-38
1.32727 1.3579 3.71636 1.39237e-38
1.34703 1.36775 3.77169 1.42003e-38
1.34368 1.35401 3.76229 1.41081e-38
1.34319 1.34319 3.76094 1.40159e-38
1.35021 1.33983 3.7806 1.43847e-38
1.35439 1.33356 3.7923 1.43854e-38
1.35156 1.32037 3.78437 1.41092e-38
1.34517 1.30378 3.76646 1.42939e-38
1.33958 1.28806 3.75083 1.46623e-38
1.34798 1.28577 3.77436 1.48457e-38
1.34708 1.27454 3.77181 1.46613e-38
1.34955 1.2665 3.77874 1.48467e-38
1.35173 1.25815 3.78484 1.44783e-38
1.35545 1.25118 3.79526 1.48478e-38
1.35391 1.23935 3.79096 1.48471e-38
1.35303 1.22814 3.78849 1.46631e-38
1.35298 1.21769 3.78835 1.46631e-38
1.35126 1.20574 3.78353 1.50318e-38
1.34973 1.194 3.77926 1.54928e-38
1.34216 1.17697 3.75805 1.51244e-38
1.34442 1.16861 3.76437 1.54006e-38
1.34202 1.1562 3.75765 1.51237e-38
1.34836 1.1513 3.77542 1.53081e-38
1.35349 1.14526 3.78977 1.5401e-38
1.349 1.13108 3.7772 1.53088e-38
1.35035 1.12183 3.78099 1.56776e-38
1.34893 1.11028 3.77702 1.57694e-38
1.34805 1.09918 3.77455 1.57687e-38
1.34921 1.08975 3.77779 1.57687e-38
1.35254 1.08203 3.7871 1.57687e-38
1.34373 1.06465 3.76245 1.57687e-38
1.34267 1.05348 3.75947 1.57698e-38
1.3469 1.04644 3.77133 1.5862e-38
1.34791 1.03685 3.77414 1.58612e-38
1.34609 1.0251 3.76905 1.60453e-38
1.34166 1.01141 3.75665 1.63219e-38
1.34431 1.00306 3.76407 1.64141e-38
1.34756 0.995121 3.77317 1.63219e-38
1.3528 0.988585 3.78784 1.65063e-38
1.35165 0.977345 3.78461 1.63226e-38
1.34401 0.961481 3.76321 1.64144e-38
1.34937 0.954935 3.77822 1.6507e-38
1.35161 0.946127 3.78451 1.65066e-38
1.35833 0.94038 3.80332 1.68758e-38
1.35253 0.925962 3.78708 1.68761e-38
1.34833 0.912718 3.77533 1.65995e-38
1.3446 0.899849 3.76488 1.69676e-38
1.34705 0.891126 3.77174 1.64144e-38
1.35863 0.888334 3.80416 1.6968e-38
1.35445 0.875184 3.79246 1.68761e-38
1.34557 0.859094 3.76759 1.6691e-38
1.35338 0.853671 3.78947 1.70598e-38
1.34622 0.838797 3.76941 1.6968e-38
1.35011 0.830835 3.7803 1.7152e-38
1.35216 0.821696 3.78604 1.69676e-38
1.35336 0.812014 3.7894 1.70591e-38
1.34389 0.795995 3.76289 1.72442e-38
1.34649 0.787178 3.77017 1.71513e-38
1.34941 0.778507 3.77836 1.68754e-38
1.35428 0.770898 3.79199 1.72442e-38
1.3481 0.757013 3.77469 1.70598e-38
1.34112 0.742775 3.75514 1.71523e-38
1.33733 0.730388 3.74453 1.72438e-38
1.33819 0.720564 3.74693 1.72438e-38
1.34112 0.711825 3.75513 1.71505e-38
1.34631 0.704226 3.76968 1.71513e-38
1.34854 0.695015 3.7759 1.72435e-38
1.35102 0.685902 3.78285 1.74279e-38
1.35359 0.676794 3.79005 1.71513e-38
1.35396 0.666563 3.79107 1.73364e-38
1.3524 0.655394 3.78672 1.72442e-38
1.35243 0.645006 3.78681 1.74286e-38
1.35367 0.635184 3.79028 1.73357e-38
1.34575 0.621114 3.76809 1.74279e-38
1.34374 0.609852 3.76247 1.75204e-38
1.34257 0.598994 3.7592 1.76133e-38
1.34956 0.59173 3.77877 1.77048e-38
1.35512 0.583745 3.79434 1.74282e-38
1.35548 0.573474 3.79536 1.76126e-38
1.3565 0.563469 3.7982 1.77048e-38
1.3469 0.549122 3.77133 1.74282e-38
1.34478 0.537911 3.76537 1.74271e-38
1.34741 0.528601 3.77276 1.77048e-38
1.34782 0.518394 3.7739 1.77959e-38
1.34767 0.507967 3.77347 1.7336e-38
1.35246 0.499371 3.7869 1.75204e-38
1.34956 0.487917 3.77876 1.76126e-38
1.34959 0.477549 3.77887 1.80736e-38
1.35429 0.468793 3.79201 1.76126e-38
1.35359 0.458138 3.79005 1.7613e-38
1.35004 0.446553 3.78013 1.73364e-38
1.34662 0.435063 3.77054 1.77048e-38
1.34949 0.42561 3.77858 1.74279e-38
1.35217 0.416052 3.78607 1.76122e-38
1.35188 0.405565 3.78527 1.75201e-38
1.34906 0.394341 3.77737 1.74279e-38
1.34914 0.383987 3.77761 1.77052e-38
1.35031 0.373931 3.78086 1.75211e-38
1.34721 0.362711 3.77219 1.7613e-38
1.34851 0.352686 3.77582 1.75208e-38
1.34987 0.34266 3.77964 1.78896e-38
1.35153 0.332684 3.78428 1.76133e-38
1.3479 0.321422 3.77411 1.77055e-38
1.34306 0.309938 3.76058 1.74289e-38
1.34797 0.3007 3.7743 1.75208e-38
1.34305 0.289272 3.76054 1.73371e-38
1.34279 0.278887 3.75982 1.76137e-38
1.33989 0.267978 3.75169 1.77059e-38
1.34281 0.258232 3.75986 1.75215e-38
1.3482 0.248898 3.77495 1.75215e-38
1.34773 0.238445 3.77365 1.77059e-38
1.34439 0.227513 3.7643 1.76137e-38
1.34195 0.216777 3.75747 1.77052e-38
1.34402 0.206772 3.76325 1.78892e-38
1.34721 0.1969 3.77219 1.75201e-38
1.34888 0.186769 3.77688 1.7613e-38
1.347 0.176146 3.77159 1.77052e-38
1.33931 0.164838 3.75007 1.7613e-38
1.34247 0.1549 3.7589 1.77044e-38
1.34688 0.145049 3.77127 1.7613e-38
1.35185 0.135185 3.78518 1.77052e-38
1.3501 0.124624 3.78027 1.73367e-38
1.34404 0.113727 3.76332 1.77977e-38
1.34813 0.103702 3.77476 1.7613e-38
1.34913 0.0934014 3.77757 1.7981e-38
1.35339 0.0832853 3.78948 1.79803e-38
1.34956 0.0726687 3.77877 1.77052e-38
1.34971 0.0622945 3.7792 1.7613e-38
1.35041 0.0519388 3.78114 1.77052e-38
1.35188 0.0415962 3.78525 1.77052e-38
1.35276 0.0312175 3.78773 1.743e-38
1.35187 0.0207979 3.78523 1.77977e-38
1.35122 0.010394 3.78343 1.77974e-38
1.35114 0 3.7832 1.75208e-38
1.35171 -0.0103977 3.78478 1.77052e-38
1.3478 -0.0207353 3.77383 1.77055e-38
1.34018 -0.0309273 3.75251 1.77977e-38
1.34114 -0.0412658 3.75519 1.75211e-38
1.347 -0.0518077 3.7716 1.7613e-38
1.35119 -0.0623626 3.78333 1.78892e-38
1.34631 -0.0724938 3.76968 1.78892e-38
1.34167 -0.0825642 3.75667 1.77048e-38
1.34675 -0.0932367 3.77091 1.7613e-38
1.3522 -0.104016 3.78617 1.77059e-38
1.35054 -0.114277 3.78152 1.77059e-38
1.34814 -0.124444 3.7748 1.74286e-38
1.34526 -0.134526 3.76672 1.77052e-38
1.34746 -0.145111 3.7729 1.77974e-38
1.34898 -0.155652 3.77715 1.75211e-38
1.35148 -0.166336 3.78415 1.77052e-38
1.34633 -0.176058 3.76971 1.73367e-38
1.34501 -0.186233 3.76604 1.77055e-38
1.33922 -0.195732 3.7498 1.76133e-38
1.34269 -0.206567 3.75952 1.72442e-38
1.34347 -0.217022 3.76172 1.76122e-38
1.3448 -0.227581 3.76544 1.76126e-38
1.34884 -0.238641 3.77676 1.76126e-38
1.35042 -0.249309 3.78118 1.75211e-38
1.33281 -0.256309 3.73185 1.71523e-38
1.33553 -0.267106 3.73948 1.74286e-38
1.34002 -0.278313 3.75207 1.75215e-38
1.33817 -0.288222 3.74689 1.68761e-38
1.33356 -0.297486 3.73396 1.72442e-38
1.33605 -0.308319 3.74093 1.7152e-38
1.34086 -0.319744 3.75441 1.7152e-38
1.34905 -0.332074 3.77734 1.70598e-38
1.3491 -0.342465 3.77749 1.68754e-38
1.34394 -0.351492 3.76303 1.69676e-38
1.3485 -0.363058 3.7758 1.68747e-38
1.34269 -0.371823 3.75954 1.67832e-38
1.34273 -0.382162 3.75964 1.69676e-38
1.34452 -0.393013 3.76465 1.6691e-38
1.34053 -0.402158 3.75347 1.65066e-38
1.33861 -0.411879 3.7481 1.67825e-38
1.34107 -0.422953 3.755 1.70591e-38
1.3455 -0.434699 3.76739 1.73346e-38
1.34294 -0.444203 3.76023 1.70594e-38
1.34254 -0.454399 3.75912 1.67832e-38
1.33956 -0.463693 3.75076 1.65992e-38
1.34506 -0.475943 3.76616 1.6691e-38
1.35193 -0.488773 3.78539 1.67825e-38
1.34576 -0.496898 3.76814 1.6875e-38
1.33649 -0.503753 3.74217 8.5767e-39
1.34389 -0.516882 3.7629 6.64095e-39
1.3471 -0.528477 3.77187 4.42646e-39
1.34952 -0.539808 3.77865 2.85877e-39
1.35195 -0.55118 3.78547 2.85877e-39
1.35052 -0.560985 3.78145 2.95097e-39
0.517139 -0.226746 1.44799 4.23954e-39
0.515761 -0.230109 1.44413 4.42429e-39
0.509912 -0.231421 1.42775 4.51613e-39
1.2646 -0.6323 3.54088 3.59526e-39
0.694579 -0.368661 1.94482 3.87148e-39
0.691848 -0.372534 1.93718 3.68816e-39
0.685995 -0.374659 1.92079 3.77928e-39
0.672806 -0.372631 1.88386 3.13429e-39
0.663157 -0.372388 1.85684 2.95061e-39
0.658977 -0.37511 1.84514 3.59598e-39
0.657342 -0.379236 1.84056 3.68673e-39
0.655312 -0.383106 1.83487 3.135e-39
0.65394 -0.387334 1.83103 3.50342e-39
0.650728 -0.390437 1.82204 3.22755e-39
0.648817 -0.394281 1.81669 3.31939e-39
0.646207 -0.397666 1.80938 3.22755e-39
0.645295 -0.402068 1.80683 3.41231e-39
0.643178 -0.405697 1.8009 3.22755e-39
0.641445 -0.409538 1.79605 3.59669e-39
0.638484 -0.412559 1.78776 3.32046e-39
0.636279 -0.416028 1.78158 3.78036e-39
0.633693 -0.419212 1.77434 3.5027e-39
0.632596 -0.423353 1.77127 3.59705e-39
0.630189 -0.426589 1.76453 3.13644e-39
0.62842 -0.430226 1.75957 2.76657e-39
0.62539 -0.432962 1.75109 3.50342e-39
0.6233 -0.43631 1.74524 3.22611e-39
0.620338 -0.439008 1.73695 3.0428e-39
0.618852 -0.442717 1.73279 3.22755e-39
0.615812 -0.44528 1.72427 2.86092e-39
0.613937 -0.448646 1.71902 2.67761e-39
0.610737 -0.451006 1.71006 2.58577e-39
0.609656 -0.454897 1.70704 2.77016e-39
0.607087 -0.45765 1.69984 2.86092e-39
0.604582 -0.460412 1.69283 3.3201e-39
0.601279 -0.462522 1.68358 3.50593e-39
0.598936 -0.465327 1.67702 3.04639e-39
0.596159 -0.467755 1.66924 3.23079e-39
0.593252 -0.470038 1.66111 3.0482e-39
0.589984 -0.471987 1.65196 3.69177e-39
0.586995 -0.474112 1.64359 3.23079e-39
0.582743 -0.475159 1.63168 2.9542e-39
0.578811 -0.476406 1.62067 2.67726e-39
0.566706 -0.470802 1.58678 2.49358e-39
0.552673 -0.463395 1.54748 3.23187e-39
0.546256 -0.462216 1.52952 3.04783e-39
0.543943 -0.464444 1.52304 3.23114e-39
0.542936 -0.46776 1.52022 2.9542e-39
0.543873 -0.472751 1.52284 2.76945e-39
0.544687 -0.477648 1.52512 3.04748e-39
0.541979 -0.479443 1.51754 2.40211e-39
0.537524 -0.479636 1.50507 2.77089e-39
0.534857 -0.481371 1.4976 3.50809e-39
0.534467 -0.485131 1.49651 3.69176e-39
0.533746 -0.488583 1.49449 2.67797e-39
0.531567 -0.490677 1.48839 3.60029e-39
0.530833 -0.494083 1.48633 4.15346e-39
0.530576 -0.497925 1.48561 2.86236e-39
0.53135 -0.502739 1.48778 3.78431e-39
0.530457 -0.505974 1.48528 4.06055e-39
0.529582 -0.509213 1.48283 6.45799e-39
0.528848 -0.512575 1.48077 5.90553e-39
0.529846 -0.517618 1.48357 5.07505e-39
0.529311 -0.521168 1.48207 7.19556e-39
0.528856 -0.524788 1.4808 6.458e-39
0.527101 -0.527101 1.47588 6.27289e-39
0.52815 -0.532212 1.47882 8.39483e-39
0.527796 -0.535916 1.47783 9.59336e-39
0.528048 -0.540234 1.47853 8.30262e-39
0.526515 -0.542715 1.47424 9.31499e-39
0.527311 -0.547592 1.47647 4.70377e-39
0.527578 -0.551927 1.47722 1.75386e-39
0.52829 -0.556737 1.47921 2.39779e-39
0.527857 -0.560341 1.478 2.12084e-39
0.527509 -0.564029 1.47702 2.39635e-39
0.526584 -0.567091 1.47444 2.30523e-39
0.526653 -0.571216 1.47463 2.12084e-39
0.526311 -0.574893 1.47367 2.39779e-39
0.527632 -0.580395 1.47737 1.93681e-39
0.527252 -0.584032 1.4763 1.93681e-39
0.527449 -0.588309 1.47686 1.47655e-39
0.525772 -0.590482 1.47216 1.93753e-39
0.524474 -0.593059 1.46853 2.02972e-39
0.522689 -0.595061 1.46353 2.029e-39
0.52269 -0.599083 1.46353 1.93645e-39
0.523378 -0.603898 1.46546 2.11976e-39
0.526299 -0.611316 1.47364 2.30415e-39
0.522059 -0.610407 1.46176 2.02864e-39
0.506452 -0.596056 1.41807 3.59668e-39
0.484326 -0.57374 1.35611 6.36399e-39
0.497251 -0.592876 1.3923 6.82462e-39
0.513298 -0.615957 1.43723 4.62047e-40
0.503591 -0.608183 1.41006 7.38989e-40
0.508343 -0.617832 1.42336 4.61228e-39
0.502708 -0.61485 1.40758 3.31794e-39
0.506709 -0.623642 1.41879 5.3448e-39
0.528115 -0.65405 1.47872 4.60724e-39
0.522972 -0.651703 1.46432 3.59848e-39
0.493428 -0.618683 1.3816 4.98034e-39
0.483122 -0.609477 1.35274 4.24242e-39
0.524276 -0.669461 1.46797 0
0.522448 -0.671144 1.46285 0
0.53978 -0.697562 1.51138 0
0.508024 -0.683879 1.42247 0
0.516594 -0.699389 1.44646 0
0.526037 -0.71622 1.4729 0
0.511829 -0.724435 1.43312 0
0.511117 -0.727358 1.43113 0
0.503684 -0.720656 1.41032 0
0.505234 -0.72676 1.41466 0
0.515539 -0.745549 1.44351 0
0.840762 -1.22881 2.35413 0
0.848506 -1.24665 2.37582 0
0.849831 -1.26167 2.37953 0
0.84967 -1.26797 2.37908 0
0.785644 -1.18451 2.1998 0
0.79689 -1.2076 2.23129 0
0.792871 -1.2076 2.22004 0
0.79816 -1.2218 2.23485 0
0.794857 -1.22286 2.2256 0
0.782357 -1.20964 2.1906 0
0.77369 -1.20219 2.16633 0
0.776887 -1.21314 2.17528 0
0.772525 -1.21227 2.16307 0
0.749759 -1.18231 2.09933 0
0.742014 -1.17581 2.07764 0
0.724276 -1.15327 2.02797 0
0.722097 -1.15536 2.02187 0
0.738617 -1.18747 2.06813 0
0.731904 -1.18231 2.04933 0
0.713437 -1.15796 1.99762 0
1.35853 1.90817 3.77486 0
1.36058 1.90065 3.78053 0
1.35636 1.88441 3.76882 1.005e-38
1.34621 1.84975 3.74061 1.03277e-38
1.33127 1.81907 3.69911 1.05117e-38
1.35391 1.83966 3.76201 1.13415e-38
1.37652 1.85988 3.82483 1.06043e-38
1.3671 1.83672 3.79867 1.04206e-38
1.33903 1.77856 3.72066 1.07883e-38
1.34199 1.77224 3.72888 1.12493e-38
1.3588 1.78407 3.7756 1.12497e-38
1.34454 1.75508 3.73596 1.13419e-38
1.35197 1.75447 3.75662 1.14341e-38
1.35544 1.74862 3.76626 1.17114e-38
1.34588 1.72602 3.73971 1.13426e-38
1.35631 1.72904 3.76868 1.15266e-38
1.35504 1.71708 3.76516 1.1711e-38
1.36172 1.71515 3.78372 1.15263e-38
1.35842 1.70061 3.77454 1.20798e-38
1.33651 1.65278 3.71365 1.16181e-38
1.37045 1.68429 3.80797 1.24479e-38
1.36463 1.66673 3.79181 1.2356e-38
1.35136 1.6402 3.75492 1.2172e-38
1.34173 1.61827 3.72816 1.24486e-38
1.34902 1.61677 3.74842 1.22642e-38
1.36306 1.62318 3.78743 1.20794e-38
1.35501 1.60325 3.76506 1.24493e-38
1.355 1.5929 3.76505 1.2633e-38
1.34822 1.57464 3.7462 1.22642e-38
1.33644 1.55068 3.71347 1.27248e-38
1.33687 1.54098 3.71467 1.29092e-38
1.34712 1.54251 3.74316 1.2817e-38
1.35263 1.53849 3.75846 1.30936e-38
1.35029 1.52551 3.75194 1.30936e-38
1.35029 1.51521 3.75195 1.30932e-38
1.34662 1.50081 3.74174 1.33698e-38
1.34809 1.49216 3.74585 1.31851e-38
1.3425 1.47572 3.7303 1.33698e-38
1.33545 1.45778 3.71071 1.30017e-38
1.33867 1.45108 3.71967 1.33705e-38
1.35305 1.45633 3.75961 1.33705e-38
1.35742 1.45068 3.77176 1.33705e-38
1.35286 1.43548 3.7591 1.36471e-38
1.34491 1.41677 3.73699 1.33702e-38
1.35517 1.41723 3.7655 1.40155e-38
1.35951 1.4114 3.77757 1.38311e-38
1.35178 1.39305 3.75608 1.33713e-38
1.33648 1.36708 3.71357 1.4017e-38
1.34166 1.36214 3.72796 1.41081e-38
1.34924 1.35954 3.74905 1.46613e-38
1.34952 1.34952 3.7498 1.41081e-38
1.34982 1.33952 3.75065 1.41081e-38
1.35289 1.33223 3.75916 1.41092e-38
1.35891 1.32779 3.77591 1.43858e-38
1.35056 1.30932 3.75271 1.45701e-38
1.34805 1.2966 3.74574 1.42939e-38
1.34687 1.28519 3.74246 1.43865e-38
1.34035 1.26873 3.72434 1.47545e-38
1.34501 1.26287 3.73727 1.46623e-38
1.35013 1.25738 3.75152 1.49389e-38
1.36098 1.25709 3.78166 1.47549e-38
1.35705 1.2431 3.77072 1.494e-38
1.35083 1.22709 3.75345 1.50322e-38
1.34739 1.21368 3.74388 1.45712e-38
1.35494 1.21014 3.76488 1.5124e-38
1.35739 1.20196 3.77167 1.52162e-38
1.34675 1.18226 3.74212 1.50318e-38
1.35064 1.17537 3.75293 1.54006e-38
1.34718 1.16207 3.74331 1.57691e-38
1.34495 1.14988 3.73711 1.55847e-38
1.33953 1.13502 3.72204 1.54003e-38
1.34579 1.13006 3.73946 1.56776e-38
1.35206 1.125 3.75688 1.5401e-38
1.34817 1.11147 3.74605 1.55854e-38
1.34666 1.09994 3.74186 1.56769e-38
1.34493 1.08827 3.73707 1.58609e-38
1.34456 1.0777 3.73602 1.58609e-38
1.34314 1.06631 3.73207 1.61375e-38
1.3419 1.05508 3.72863 1.58612e-38
1.34568 1.04778 3.73913 1.57694e-38
1.34627 1.03797 3.74079 1.59538e-38
1.34579 1.02732 3.73945 1.623e-38
1.34243 1.0145 3.7301 1.61375e-38
1.34161 1.00365 3.72783 1.65063e-38
1.34284 0.994319 3.73126 1.63226e-38
1.35056 0.989722 3.7527 1.63219e-38
1.35056 0.979413 3.7527 1.6507e-38
1.35037 0.968967 3.75217 1.65985e-38
1.3512 0.959248 3.75448 1.6507e-38
1.34397 0.943855 3.73438 1.63226e-38
1.35667 0.942416 3.76967 1.68754e-38
1.35524 0.931078 3.7657 1.65988e-38
1.35711 0.922004 3.77089 1.67832e-38
1.34753 0.90521 3.74428 1.65995e-38
1.3433 0.892112 3.73251 1.6691e-38
1.35318 0.888348 3.75999 1.68754e-38
1.34705 0.874037 3.74294 1.71524e-38
1.34567 0.862875 3.73913 1.67836e-38
1.34764 0.853847 3.74458 1.68761e-38
1.34276 0.840505 3.73102 1.65995e-38
1.34513 0.831719 3.7376 1.72449e-38
1.34645 0.822258 3.74128 1.6968e-38
1.35638 0.817972 3.76888 1.72445e-38
1.35446 0.80647 3.76353 1.71516e-38
1.34682 0.791639 3.7423 1.70598e-38
1.34199 0.77856 3.72889 1.68747e-38
1.35135 0.773672 3.75489 1.7152e-38
1.35389 0.764793 3.76195 1.7152e-38
1.35383 0.754423 3.76178 1.70598e-38
1.34806 0.740916 3.74574 1.71516e-38
1.3407 0.726639 3.7253 1.75204e-38
1.34261 0.717425 3.73061 1.75193e-38
1.34663 0.709292 3.74177 1.74279e-38
1.34994 0.700733 3.75098 1.7152e-38
1.34942 0.690164 3.74955 1.72442e-38
1.35032 0.680314 3.75204 1.76123e-38
1.35344 0.671554 3.7607 1.74286e-38
1.36233 0.665564 3.78539 1.75208e-38
1.35722 0.652707 3.7712 1.73364e-38
1.35205 0.639902 3.75685 1.74286e-38
1.34982 0.628542 3.75064 1.74282e-38
1.35258 0.619502 3.75832 1.74282e-38
1.34921 0.607658 3.74894 1.75204e-38
1.34728 0.596505 3.74358 1.7613e-38
1.34796 0.586518 3.74548 1.73357e-38
1.34592 0.575355 3.73981 1.73357e-38
1.3476 0.565787 3.74448 1.74282e-38
1.34982 0.556415 3.75065 1.76126e-38
1.34269 0.543225 3.73083 1.7152e-38
1.34476 0.533797 3.73658 1.74286e-38
1.35123 0.52605 3.75455 1.74282e-38
1.35065 0.515516 3.75296 1.76126e-38
1.34939 0.504735 3.74946 1.75201e-38
1.34689 0.493516 3.7425 1.74282e-38
1.34758 0.483484 3.74443 1.77048e-38
1.35241 0.474892 3.75784 1.77044e-38
1.3562 0.465871 3.76838 1.76126e-38
1.35871 0.456359 3.77534 1.75208e-38
1.34944 0.442947 3.74959 1.7613e-38
1.34621 0.431608 3.7406 1.74286e-38
1.34507 0.420976 3.73744 1.75208e-38
1.34853 0.411766 3.74707 1.74279e-38
1.35028 0.401992 3.75192 1.76122e-38
1.3465 0.390587 3.74141 1.77974e-38
1.35203 0.381872 3.7568 1.7613e-38
1.35317 0.371862 3.75994 1.73367e-38
1.35617 0.362337 3.7683 1.7613e-38
1.35095 0.350628 3.75379 1.75211e-38
1.3593 0.342419 3.77699 1.76137e-38
1.35715 0.331517 3.771 1.75211e-38
1.35079 0.319651 3.75333 1.74289e-38
1.34721 0.308522 3.7434 1.77052e-38
1.34663 0.29811 3.74179 1.77052e-38
1.34956 0.288456 3.74993 1.77052e-38
1.34416 0.27704 3.73491 1.77974e-38
1.34083 0.266119 3.72566 1.75215e-38
1.34366 0.256423 3.73352 1.77059e-38
1.33716 0.244977 3.71548 1.75215e-38
1.35265 0.237488 3.7585 1.75215e-38
1.34355 0.225635 3.73323 1.7613e-38
1.3438 0.215419 3.73393 1.74282e-38
1.34536 0.205399 3.73826 1.74282e-38
1.34829 0.195554 3.7464 1.77048e-38
1.35445 0.186107 3.7635 1.77052e-38
1.35089 0.175307 3.75363 1.75208e-38
1.34294 0.164023 3.73153 1.73364e-38
1.34526 0.154037 3.73797 1.77044e-38
1.35136 0.144421 3.75493 1.7613e-38
1.35345 0.134311 3.76072 1.77052e-38
1.34967 0.123634 3.75022 1.7613e-38
1.34766 0.113162 3.74463 1.78896e-38
1.34509 0.102679 3.7375 1.75201e-38
1.34842 0.0926397 3.74676 1.77966e-38
1.35049 0.0824729 3.75252 1.78888e-38
1.34695 0.0719746 3.74268 1.78896e-38
1.34391 0.0615531 3.73422 1.77052e-38
1.34289 0.0512553 3.73138 1.75208e-38
1.34233 0.040987 3.72982 1.77052e-38
1.34907 0.0308948 3.74857 1.73367e-38
1.35092 0.0206248 3.75371 1.75211e-38
1.34986 0.0103043 3.75077 1.77055e-38
1.35397 0 3.76217 1.74286e-38
1.35341 -0.0103314 3.76062 1.77974e-38
1.34719 -0.0205678 3.74333 1.73367e-38
1.34936 -0.0309015 3.74938 1.76133e-38
1.35086 -0.0412478 3.75355 1.77052e-38
1.35435 -0.0516926 3.76322 1.77974e-38
1.35349 -0.061992 3.76085 1.77052e-38
1.3496 -0.0721158 3.75002 1.74286e-38
1.34626 -0.0822143 3.74075 1.75208e-38
1.35008 -0.0927536 3.75137 1.77052e-38
1.3525 -0.103244 3.7581 1.77981e-38
1.35002 -0.113361 3.7512 1.80739e-38
1.34955 -0.123623 3.74991 1.75208e-38
1.34487 -0.133461 3.7369 1.7613e-38
1.34595 -0.143842 3.73988 1.7613e-38
1.3509 -0.154683 3.75364 1.74286e-38
1.35507 -0.165505 3.76524 1.80739e-38
1.34961 -0.17514 3.75006 1.73367e-38
1.33893 -0.183976 3.72039 1.77055e-38
1.3398 -0.194322 3.72281 1.77055e-38
1.34504 -0.20535 3.73737 1.77052e-38
1.34926 -0.216293 3.74908 1.76122e-38
1.34378 -0.225674 3.73387 1.7336e-38
1.34298 -0.235791 3.73165 1.76126e-38
1.33799 -0.245128 3.71778 1.71523e-38
1.33386 -0.254553 3.7063 1.7152e-38
1.34137 -0.266226 3.72716 1.69683e-38
1.34366 -0.276938 3.73354 1.68768e-38
1.34343 -0.287145 3.73288 1.6601e-38
1.33816 -0.296233 3.71824 1.70605e-38
1.33877 -0.306588 3.71994 1.66917e-38
1.34489 -0.318257 3.73695 1.69676e-38
1.34663 -0.328947 3.74178 1.65988e-38
1.34728 -0.339391 3.74359 1.65988e-38
1.34672 -0.34953 3.74202 1.67832e-38
1.34263 -0.358719 3.73067 1.69672e-38
1.34085 -0.368477 3.72572 1.68754e-38
1.34711 -0.38048 3.7431 1.65988e-38
1.35135 -0.391993 3.75488 1.6691e-38
1.34672 -0.400931 3.74202 1.68747e-38
1.34506 -0.410705 3.73741 1.68747e-38
1.34676 -0.421506 3.74215 1.7058e-38
1.35052 -0.432991 3.75259 1.67825e-38
1.34573 -0.441727 3.73927 1.71516e-38
1.3427 -0.450984 3.73087 1.69676e-38
1.34115 -0.460699 3.72654 1.64148e-38
1.33973 -0.470438 3.7226 1.6507e-38
1.34477 -0.482476 3.73662 1.69676e-38
1.34193 -0.4917 3.72872 1.6875e-38
1.33981 -0.50115 3.72283 8.30012e-39
1.33842 -0.510847 3.71897 5.6268e-39
1.34633 -0.524144 3.74095 4.79559e-39
1.34266 -0.532963 3.73074 3.22755e-39
1.3473 -0.545089 3.74363 2.67438e-39
1.34962 -0.556331 3.75009 2.95097e-39
0.506231 -0.220268 1.40663 3.32191e-39
0.51387 -0.227515 1.42785 3.22791e-39
0.521763 -0.234992 1.44978 4.24099e-39
0.519903 -0.238124 1.44462 3.68672e-39
1.33416 -0.672174 3.70714 3.32263e-39
0.697005 -0.372445 1.93672 3.50629e-39
0.692544 -0.375348 1.92432 3.41374e-39
0.682433 -0.375078 1.89623 3.68889e-39
0.670644 -0.373718 1.86347 3.32298e-39
0.664687 -0.375472 1.84692 3.69104e-39
0.662037 -0.379029 1.83955 3.96583e-39
0.660281 -0.383064 1.83467 4.05659e-39
0.659141 -0.387434 1.83151 4.88635e-39
0.656505 -0.390896 1.82418 4.2417e-39
0.65444 -0.394662 1.81844 3.32046e-39
0.651232 -0.397699 1.80953 3.96656e-39
0.649582 -0.40165 1.80495 3.78037e-39
0.646996 -0.40499 1.79776 3.4141e-39
0.645555 -0.409016 1.79375 4.15166e-39
0.642594 -0.412045 1.78553 3.68997e-39
0.640589 -0.41565 1.77996 4.15022e-39
0.638218 -0.418983 1.77337 3.59669e-39
0.637355 -0.423282 1.77097 2.21591e-39
0.634902 -0.426499 1.76416 2.49718e-39
0.633054 -0.43009 1.75902 2.86237e-39
0.629608 -0.432555 1.74945 2.86021e-39
0.627164 -0.435664 1.74265 5.62464e-39
0.62435 -0.438475 1.73484 3.78612e-39
0.623215 -0.442435 1.73168 1.94364e-39
0.620524 -0.445262 1.7242 5.81838e-39
0.618738 -0.448703 1.71924 3.60605e-39
0.615711 -0.451208 1.71083 8.03647e-39
0.614742 -0.455191 1.70814 6.55413e-39
0.612181 -0.457968 1.70102 6.27791e-39
0.609871 -0.460895 1.6946 5.63254e-39
0.606304 -0.462828 1.68469 1.38408e-38
0.603797 -0.465523 1.67773 1.181e-38
0.600665 -0.467693 1.66902 2.20405e-38
0.597888 -0.470095 1.66131 2.10271e-38
0.595137 -0.472475 1.65366 8.30263e-39
0.592425 -0.474844 1.64613 6.3676e-39
0.587781 -0.475609 1.63322 8.39626e-39
0.583105 -0.476276 1.62023 1.21763e-38
0.570368 -0.470227 1.58484 1.0148e-38
0.557332 -0.463735 1.54862 1.24529e-38
0.550782 -0.462489 1.53042 1.55886e-38
0.549038 -0.465216 1.52557 1.45755e-38
0.547915 -0.468446 1.52245 1.04249e-38
0.548939 -0.473512 1.5253 1.1532e-38
0.548673 -0.477471 1.52456 1.22706e-38
0.545901 -0.479226 1.51685 1.27298e-38
0.541029 -0.479079 1.50332 1.31919e-38
0.53892 -0.481325 1.49746 1.29149e-38
0.538118 -0.484717 1.49523 1.10696e-38
0.537697 -0.488442 1.49406 1.08841e-38
0.535753 -0.490766 1.48866 9.50117e-39
0.535851 -0.494947 1.48893 9.50404e-39
0.535489 -0.4987 1.48792 9.13526e-39
0.536411 -0.503653 1.49049 8.85723e-39
0.535172 -0.506575 1.48704 9.77811e-39
0.534343 -0.50987 1.48474 8.85615e-39
0.533015 -0.512671 1.48105 8.30298e-39
0.533624 -0.51733 1.48274 9.22566e-39
0.53289 -0.520686 1.4807 9.04163e-39
0.532388 -0.52426 1.47931 8.94908e-39
0.531004 -0.526951 1.47546 9.59409e-39
0.532208 -0.532208 1.47881 9.68664e-39
0.531769 -0.535828 1.47759 9.96502e-39
0.531979 -0.5401 1.47817 1.11636e-38
0.53066 -0.542813 1.47451 1.17146e-38
0.531176 -0.547395 1.47594 8.30047e-39
0.531151 -0.551424 1.47587 2.03045e-39
0.531594 -0.555942 1.4771 2.2134e-39
0.531622 -0.56003 1.47718 2.12048e-39
0.531808 -0.564285 1.4777 2.48854e-39
0.531052 -0.567536 1.47559 2.39635e-39
0.530839 -0.571361 1.475 2.21304e-39
0.530278 -0.574805 1.47344 2.48927e-39
0.531639 -0.580339 1.47723 1.93681e-39
0.530941 -0.58363 1.47529 1.75242e-39
0.530782 -0.587507 1.47485 2.02937e-39
0.529246 -0.589846 1.47058 2.02972e-39
0.52967 -0.594362 1.47175 1.56875e-39
0.528464 -0.597044 1.4684 1.93681e-39
0.528997 -0.601683 1.46988 1.75242e-39
0.5282 -0.60481 1.46767 2.12048e-39
0.530673 -0.611692 1.47454 2.30415e-39
0.517204 -0.600114 1.43712 2.11976e-39
0.505759 -0.590696 1.40532 4.14914e-39
0.500302 -0.588141 1.39015 3.59705e-39
0.488729 -0.578267 1.35799 8.11428e-39
0.510071 -0.607413 1.4173 1.4762e-39
0.526899 -0.631475 1.46406 1.75242e-39
0.515909 -0.622241 1.43352 4.33641e-39
0.509618 -0.618544 1.41604 3.77819e-39
0.508038 -0.620505 1.41165 5.89509e-39
0.504238 -0.619713 1.40109 3.77747e-39
0.501334 -0.61997 1.39302 4.15058e-39
0.529184 -0.658451 1.47041 4.79738e-39
0.507131 -0.634881 1.40913 3.59705e-39
0.519511 -0.658311 1.44353 0
0.527825 -0.672876 1.46663 0
0.529724 -0.67934 1.4719 0
0.529136 -0.710901 1.47027 0
0.515008 -0.695851 1.43101 0
0.515696 -0.700717 1.43293 0
0.507235 -0.696964 1.40942 0
0.526004 -0.730785 1.46157 0
0.514589 -0.72671 1.42985 0
0.513788 -0.7295 1.42762 0
0.517086 -0.738131 1.43679 0
0.522057 -0.749211 1.4506 0
0.846264 -1.22741 2.35145 0
0.836638 -1.21983 2.3247 0
0.850685 -1.24681 2.36374 0
0.854915 -1.25953 2.37549 0
0.83772 -1.24059 2.32771 0
0.843677 -1.25585 2.34426 0
0.80562 -1.20536 2.23852 0
0.805676 -1.21159 2.23867 0
0.806135 -1.21843 2.23995 0
0.813528 -1.23582 2.26049 0
0.794984 -1.21372 2.20896 0
0.786524 -1.2068 2.18546 0
0.781414 -1.20493 2.17126 0
0.775709 -1.20205 2.15541 0
0.767981 -1.19594 2.13393 0
0.758129 -1.18639 2.10656 0
0.747878 -1.18747 2.07807 0
0.746341 -1.19073 2.0738 0
0.727909 -1.16688 2.02259 0
0.722673 -1.164 2.00804 0
1.33367 1.94999 3.6777 0
1.31674 1.88533 3.63101 0
1.32532 1.88758 3.65467 0
1.33981 1.86762 3.69463 0
1.34948 1.86064 3.72128 1.02344e-38
1.33077 1.81468 3.66969 1.04199e-38
1.33544 1.81094 3.68258 1.02359e-38
1.32899 1.79213 3.6648 1.06043e-38
1.38084 1.85159 3.80778 1.10653e-38
1.36885 1.82513 3.77471 1.0789e-38
1.34467 1.77252 3.70802 1.11571e-38
1.3311 1.73447 3.67062 1.14341e-38
1.32615 1.71797 3.65696 1.16184e-38
1.3471 1.73491 3.71474 1.18028e-38
1.35047 1.72901 3.72401 1.16184e-38
1.35395 1.72321 3.73363 1.18028e-38
1.35417 1.71323 3.73423 1.19876e-38
1.35572 1.70492 3.73851 1.16181e-38
1.34788 1.68485 3.71687 1.17106e-38
1.354 1.68224 3.73376 1.18032e-38
1.34874 1.66549 3.71925 1.20798e-38
1.35066 1.65763 3.72455 1.18036e-38
1.36007 1.65887 3.7505 1.2172e-38
1.35553 1.64306 3.73797 1.21723e-38
1.35583 1.63316 3.73882 1.22642e-38
1.35373 1.62037 3.73301 1.254e-38
1.36501 1.62354 3.76412 1.254e-38
1.34534 1.58995 3.70988 1.26326e-38
1.34457 1.57885 3.70776 1.29092e-38
1.34825 1.57296 3.71791 1.25404e-38
1.34343 1.55716 3.70461 1.27244e-38
1.33288 1.53483 3.67551 1.29092e-38
1.3336 1.52556 3.67751 1.30014e-38
1.34287 1.52599 3.70308 1.29092e-38
1.3516 1.52567 3.72714 1.30014e-38
1.36071 1.52565 3.75227 1.2817e-38
1.35081 1.50431 3.72496 1.31861e-38
1.35381 1.49739 3.73323 1.30939e-38
1.34784 1.48058 3.71676 1.31858e-38
1.34031 1.46216 3.69601 1.33698e-38
1.33542 1.44671 3.68253 1.35546e-38
1.34001 1.44153 3.69519 1.3278e-38
1.34139 1.43285 3.69899 1.35549e-38
1.36579 1.44857 3.76627 1.38315e-38
1.35589 1.42779 3.73896 1.37386e-38
1.35817 1.4199 3.74526 1.36464e-38
1.35762 1.40905 3.74375 1.35546e-38
1.3637 1.40502 3.76049 1.41081e-38
1.35814 1.38901 3.74518 1.42921e-38
1.35222 1.37271 3.72886 1.41081e-38
1.34654 1.35674 3.71319 1.42003e-38
1.34669 1.34669 3.71359 1.38315e-38
1.34914 1.33892 3.72036 1.42925e-38
1.3531 1.3326 3.73129 1.44769e-38
1.3565 1.32567 3.74065 1.42014e-38
1.3555 1.31443 3.73791 1.42936e-38
1.35287 1.30162 3.73063 1.45701e-38
1.35141 1.28998 3.72661 1.42939e-38
1.34896 1.27743 3.71987 1.46631e-38
1.34033 1.25909 3.69605 1.46631e-38
1.34408 1.25244 3.7064 1.49389e-38
1.35208 1.24965 3.72846 1.50311e-38
1.35415 1.24131 3.73418 1.50318e-38
1.35096 1.22814 3.72537 1.53088e-38
1.34434 1.21194 3.70712 1.52166e-38
1.34915 1.20606 3.7204 1.48478e-38
1.35101 1.19748 3.7255 1.53084e-38
1.3499 1.18628 3.72245 1.54006e-38
1.3584 1.18346 3.74589 1.54006e-38
1.35596 1.17106 3.73916 1.53081e-38
1.35154 1.157 3.72696 1.54003e-38
1.34297 1.13949 3.70335 1.56772e-38
1.34381 1.13002 3.70566 1.53081e-38
1.34699 1.12249 3.71442 1.57691e-38
1.35088 1.1155 3.72514 1.56769e-38
1.35192 1.10612 3.72803 1.60456e-38
1.34562 1.09077 3.71065 1.61375e-38
1.34638 1.08119 3.71276 1.58609e-38
1.34458 1.06955 3.70777 1.58609e-38
1.34145 1.0569 3.69914 1.61375e-38
1.34216 1.04729 3.7011 1.59534e-38
1.34922 1.04258 3.72059 1.59538e-38
1.34941 1.0325 3.7211 1.61382e-38
1.34491 1.01887 3.7087 1.61378e-38
1.33928 1.00446 3.69316 1.64144e-38
1.34208 0.996396 3.7009 1.66906e-38
1.34836 0.990839 3.7182 1.64144e-38
1.35293 0.983948 3.7308 1.64144e-38
1.34886 0.97077 3.71958 1.65066e-38
1.3518 0.962646 3.72769 1.66906e-38
1.35023 0.951297 3.72336 1.68747e-38
1.35402 0.943714 3.73382 1.65066e-38
1.34779 0.929161 3.71664 1.68754e-38
1.36361 0.929733 3.76025 1.69676e-38
1.3544 0.913192 3.73485 1.65988e-38
1.34585 0.897237 3.7113 1.6691e-38
1.34568 0.886927 3.71082 1.68758e-38
1.3519 0.880784 3.72797 1.67832e-38
1.35027 0.869492 3.72347 1.67832e-38
1.35131 0.859926 3.72635 1.67836e-38
1.34759 0.84735 3.71609 1.69683e-38
1.34906 0.838052 3.72013 1.70605e-38
1.34773 0.827018 3.71647 1.69683e-38
1.34756 0.816701 3.71599 1.67836e-38
1.35862 0.813112 3.74649 1.70601e-38
1.35823 0.802592 3.74543 1.69676e-38
1.34584 0.785076 3.71127 1.7152e-38
1.34531 0.774574 3.7098 1.71524e-38
1.34767 0.76572 3.7163 1.7152e-38
1.35495 0.759593 3.73638 1.72442e-38
1.35188 0.747631 3.72791 1.71516e-38
1.34872 0.735666 3.7192 1.7336e-38
1.34591 0.723934 3.71144 1.76115e-38
1.34525 0.713392 3.70964 1.77037e-38
1.34952 0.705431 3.7214 1.77044e-38
1.35392 0.697475 3.73354 1.7613e-38
1.3508 0.685634 3.72494 1.74286e-38
1.34934 0.674669 3.7209 1.74286e-38
1.3505 0.665021 3.72412 1.7152e-38
1.35423 0.656595 3.73438 1.77052e-38
1.35835 0.648305 3.74576 1.75201e-38
1.3486 0.633434 3.71887 1.73357e-38
1.35214 0.624852 3.72863 1.7336e-38
1.35438 0.615629 3.73481 1.76122e-38
1.35443 0.605388 3.73494 1.78888e-38
1.34942 0.592928 3.72114 1.74286e-38
1.34911 0.582571 3.72028 1.75201e-38
1.34663 0.571299 3.71345 1.76122e-38
1.34799 0.561664 3.71719 1.76126e-38
1.34911 0.551909 3.72027 1.7797e-38
1.34903 0.541656 3.72005 1.75211e-38
1.35221 0.532688 3.72882 1.77055e-38
1.35704 0.524312 3.74215 1.75204e-38
1.35547 0.513436 3.73781 1.75204e-38
1.34892 0.500734 3.71974 1.77048e-38
1.34634 0.489578 3.71263 1.7336e-38
1.34706 0.479637 3.71463 1.75208e-38
1.35674 0.472805 3.74133 1.74279e-38
1.36034 0.463752 3.75124 1.73357e-38
1.35443 0.451476 3.73493 1.7613e-38
1.34354 0.43767 3.70493 1.77052e-38
1.34525 0.428034 3.70962 1.7613e-38
1.34392 0.417429 3.70595 1.78896e-38
1.3468 0.408123 3.71392 1.76122e-38
1.34709 0.398002 3.71469 1.73367e-38
1.34756 0.387933 3.71599 1.77974e-38
1.35067 0.378596 3.72457 1.75215e-38
1.35307 0.36902 3.73121 1.77052e-38
1.35095 0.358206 3.72535 1.77974e-38
1.35352 0.348635 3.73245 1.74289e-38
1.35724 0.33931 3.74269 1.77977e-38
1.3591 0.329478 3.74781 1.77052e-38
1.3537 0.317915 3.73294 1.7613e-38
1.34557 0.305811 3.71051 1.77044e-38
1.35176 0.296977 3.72757 1.80736e-38
1.35096 0.286567 3.72537 1.77052e-38
1.34835 0.275799 3.71818 1.7613e-38
1.3423 0.264392 3.70148 1.77059e-38
1.34045 0.253873 3.69639 1.77981e-38
1.34963 0.245388 3.72172 1.70612e-38
1.34516 0.234384 3.70938 1.73371e-38
1.34821 0.224702 3.71779 1.74286e-38
1.34565 0.214081 3.71073 1.74282e-38
1.34833 0.204292 3.71811 1.77048e-38
1.34892 0.194163 3.71976 1.7797e-38
1.35036 0.18414 3.72373 1.7613e-38
1.35018 0.173887 3.72322 1.77055e-38
1.3509 0.163746 3.72522 1.75211e-38
1.35234 0.153675 3.72917 1.7613e-38
1.35307 0.143508 3.7312 1.77974e-38
1.35065 0.133018 3.72452 1.75208e-38
1.34736 0.122487 3.71543 1.77974e-38
1.34681 0.112234 3.71392 1.75208e-38
1.34859 0.102166 3.71884 1.77044e-38
1.3465 0.0918065 3.71306 1.77044e-38
1.35093 0.0818745 3.72529 1.78896e-38
1.34646 0.0714033 3.71297 1.77974e-38
1.34556 0.0611617 3.71048 1.77052e-38
1.34618 0.0509917 3.71219 1.77052e-38
1.34756 0.040835 3.71599 1.73364e-38
1.34837 0.0306448 3.71824 1.78896e-38
1.34992 0.0204533 3.7225 1.76133e-38
1.34894 0.0102192 3.7198 1.77974e-38
1.34574 0 3.71097 1.75208e-38
1.3506 -0.0102318 3.72439 1.79818e-38
1.34462 -0.020373 3.70788 1.77974e-38
1.35085 -0.030701 3.72506 1.7613e-38
1.3593 -0.041191 3.74838 1.74286e-38
1.35155 -0.0511951 3.727 1.7613e-38
1.34956 -0.0613437 3.72152 1.77052e-38
1.35561 -0.0718884 3.7382 1.75208e-38
1.35712 -0.08225 3.74237 1.77052e-38
1.3504 -0.0920727 3.72383 1.7613e-38
1.34793 -0.102116 3.71701 1.77052e-38
1.35137 -0.112614 3.72651 1.7613e-38
1.35032 -0.122757 3.72362 1.75215e-38
1.34847 -0.132804 3.71851 1.74293e-38
1.34796 -0.142966 3.71711 1.7613e-38
1.34791 -0.153172 3.71698 1.75208e-38
1.3507 -0.163721 3.72466 1.75208e-38
1.34834 -0.17365 3.71815 1.73371e-38
1.34473 -0.183372 3.70819 1.77055e-38
1.34257 -0.193248 3.70223 1.75208e-38
1.35005 -0.204553 3.72286 1.74286e-38
1.35215 -0.215114 3.72864 1.75201e-38
1.35029 -0.225048 3.72352 1.74282e-38
1.34397 -0.234177 3.70611 1.76126e-38
1.3415 -0.243909 3.69929 1.70594e-38
1.34271 -0.254302 3.70263 1.73364e-38
1.3441 -0.264747 3.70645 1.70605e-38
1.34555 -0.275226 3.71046 1.71534e-38
1.34906 -0.286163 3.72012 1.67846e-38
1.34611 -0.295736 3.712 1.68761e-38
1.34839 -0.306451 3.71827 1.66003e-38
1.34714 -0.316373 3.71483 1.68761e-38
1.34168 -0.325255 3.69978 1.64144e-38
1.34238 -0.335595 3.70172 1.67832e-38
1.34347 -0.346045 3.70471 1.68754e-38
1.34038 -0.355405 3.69621 1.69676e-38
1.34317 -0.366318 3.70389 1.70598e-38
1.34938 -0.378236 3.72102 1.67839e-38
1.35289 -0.389469 3.7307 1.70598e-38
1.36022 -0.401882 3.7509 1.71513e-38
1.3534 -0.41012 3.73209 1.71516e-38
1.35444 -0.420697 3.73497 1.69672e-38
1.35057 -0.429728 3.72431 1.70594e-38
1.34919 -0.439508 3.72048 1.7152e-38
1.34726 -0.449088 3.71518 1.67836e-38
1.34704 -0.459219 3.71457 1.68758e-38
1.34352 -0.468196 3.70485 1.65995e-38
1.34624 -0.479344 3.71237 1.65988e-38
1.34913 -0.490593 3.72033 1.6875e-38
1.34681 -0.499951 3.71392 7.83914e-39
1.34492 -0.50944 3.70872 5.71828e-39
1.33689 -0.516525 3.68657 5.34841e-39
1.33719 -0.526772 3.6874 2.95133e-39
1.34008 -0.538063 3.69537 3.4123e-39
1.34414 -0.549877 3.70658 3.0446e-39
0.520096 -0.228527 1.4342 3.87546e-39
0.528923 -0.236412 1.45854 3.41159e-39
0.531328 -0.241513 1.46518 2.58506e-39
0.527137 -0.243601 1.45362 3.04641e-39
1.28008 -0.630341 3.52991 3.4134e-39
1.33796 -0.668982 3.68954 3.41483e-39
0.699294 -0.376135 1.92836 5.90339e-39
0.69321 -0.378114 1.91158 4.42825e-39
0.680019 -0.376071 1.8752 5.81549e-39
0.671726 -0.376574 1.85234 9.13561e-39
0.667966 -0.379526 1.84197 7.93276e-39
0.666157 -0.383545 1.83698 1.41095e-38
0.664799 -0.387799 1.83323 1.28173e-38
0.662343 -0.391384 1.82646 1.9271e-38
0.659714 -0.394829 1.81921 1.81658e-38
0.656659 -0.397975 1.81079 1.65974e-38
0.65471 -0.401754 1.80541 2.2867e-38
0.651352 -0.404628 1.79615 2.30507e-38
0.649722 -0.408537 1.79166 2.01015e-38
0.646659 -0.41151 1.78321 2.30507e-38
0.644988 -0.415333 1.7786 1.31875e-38
0.642871 -0.41884 1.77277 1.46616e-38
0.64207 -0.423182 1.77056 1.83523e-38
0.639685 -0.426457 1.76398 1.72506e-38
0.637316 -0.429705 1.75745 1.93686e-38
0.633629 -0.43202 1.74728 2.15756e-38
0.631436 -0.435308 1.74123 2.18514e-38
0.629098 -0.438463 1.73479 1.65098e-38
0.627975 -0.442437 1.73169 2.19487e-38
0.625237 -0.445244 1.72414 2.1214e-38
0.623266 -0.448562 1.7187 2.20405e-38
0.620744 -0.45145 1.71175 1.05308e-38
0.619005 -0.454875 1.70695 6.10106e-39
0.616249 -0.457518 1.69935 4.25572e-39
0.613577 -0.460183 1.69199 1.76609e-39
0.610718 -0.462665 1.6841 2.10303e-38
0.60858 -0.465656 1.67821 2.1214e-38
0.605433 -0.467835 1.66953 2.16732e-38
0.602896 -0.470442 1.66253 2.19487e-38
0.600147 -0.472843 1.65495 1.29149e-38
0.597052 -0.474928 1.64642 7.75089e-39
0.591784 -0.47522 1.63189 1.02427e-38
0.586617 -0.475516 1.61764 1.36539e-38
0.575705 -0.471032 1.58755 1.2455e-38
0.562212 -0.464251 1.55034 1.30997e-38
0.555407 -0.462839 1.53158 1.54978e-38
0.553615 -0.46554 1.52664 1.69723e-38
0.553013 -0.469223 1.52497 1.51298e-38
0.553831 -0.474113 1.52723 1.24554e-38
0.552873 -0.477481 1.52459 1.42989e-38
0.549474 -0.478708 1.51522 1.42064e-38
0.545264 -0.479171 1.50361 1.43908e-38
0.543243 -0.481511 1.49803 1.49443e-38
0.54196 -0.484479 1.4945 1.40224e-38
0.541012 -0.48773 1.49188 1.22703e-38
0.539297 -0.49027 1.48715 1.18093e-38
0.539397 -0.494447 1.48743 1.14412e-38
0.539044 -0.498207 1.48645 1.16253e-38
0.54017 -0.50334 1.48956 1.06115e-38
0.539475 -0.506779 1.48764 1.08877e-38
0.539166 -0.510574 1.48679 1.02416e-38
0.537632 -0.513194 1.48256 1.00572e-38
0.537917 -0.517542 1.48335 9.68736e-39
0.536695 -0.520432 1.47998 9.78099e-39
0.5364 -0.524209 1.47916 9.96468e-39
0.535679 -0.527562 1.47717 9.87319e-39
0.537285 -0.533215 1.4816 9.96574e-39
0.536648 -0.536648 1.47985 1.04271e-38
0.536718 -0.540784 1.48004 1.08877e-38
0.535226 -0.543336 1.47593 1.19008e-38
0.535759 -0.547936 1.4774 8.30047e-39
0.53538 -0.551604 1.47635 1.56947e-39
0.535967 -0.556269 1.47797 1.84461e-39
0.536029 -0.560394 1.47814 2.21196e-39
0.536438 -0.564885 1.47927 2.11976e-39
0.535511 -0.567966 1.47671 2.02757e-39
0.534793 -0.571257 1.47473 2.21196e-39
0.534101 -0.574563 1.47282 2.30415e-39
0.535667 -0.580306 1.47714 1.93681e-39
0.535144 -0.583793 1.4757 1.66023e-39
0.534811 -0.587482 1.47478 1.66059e-39
0.533281 -0.589841 1.47056 1.66059e-39
0.53421 -0.594915 1.47312 1.56803e-39
0.534053 -0.598787 1.47269 1.56803e-39
0.533934 -0.602698 1.47236 1.66059e-39
0.532987 -0.605668 1.46975 1.47583e-39
0.528489 -0.60456 1.45735 1.84318e-39
0.519011 -0.59765 1.43121 2.48783e-39
0.512093 -0.593563 1.41214 2.67293e-39
0.512026 -0.597364 1.41195 3.59705e-39
0.515508 -0.605332 1.42155 6.54695e-39
0.522505 -0.617506 1.44085 1.2918e-39
0.515378 -0.612988 1.4212 2.39635e-39
0.533228 -0.638258 1.47042 3.87363e-39
0.523544 -0.630633 1.44371 5.43268e-39
0.501945 -0.608418 1.38415 5.98728e-39
0.500371 -0.610301 1.37981 4.78802e-39
0.503931 -0.61846 1.38963 3.68852e-39
0.537054 -0.667248 1.48097 4.42716e-39
0.526235 -0.657794 1.45113 0
0.527584 -0.663477 1.45485 0
0.530531 -0.671202 1.46298 0
0.542503 -0.690459 1.49599 0
0.516184 -0.688245 1.42342 0
0.525459 -0.704593 1.44899 0
0.520739 -0.706153 1.43598 0
0.523843 -0.730205 1.44454 0
0.523551 -0.733765 1.44373 0
0.520496 -0.733427 1.43531 0
0.520385 -0.737212 1.435 0
0.854927 -1.23058 2.35753 0
0.840804 -1.21662 2.31858 0
0.851172 -1.23807 2.34717 0
0.846525 -1.24413 2.33436 0
0.819266 -1.21028 2.25919 0
0.833649 -1.23784 2.29885 0
0.817827 -1.22055 2.25522 0
0.821717 -1.23257 2.26595 0
0.818828 -1.23445 2.25798 0
0.800434 -1.21278 2.20726 0
0.791017 -1.2045 2.18129 0
0.787404 -1.20497 2.17133 0
0.75929 -1.1677 2.0938 0
0.759581 -1.1739 2.0946 0
0.758801 -1.18419 2.09245 0
0.771805 -1.21033 2.12831 0
0.769229 -1.21212 2.12121 0
0.738537 -1.16935 2.03657 0
0.74314 -1.18227 2.04926 0
0.753909 -1.20511 2.07896 0
1.34062 1.9555 3.66908 0
1.38815 1.99351 3.79916 0
1.32665 1.89521 3.63083 0
1.34027 1.8542 3.66809 0
1.33219 1.83301 3.64599 0
1.31927 1.7954 3.61063 1.08798e-38
1.33052 1.80071 3.64143 1.06965e-38
1.34663 1.80226 3.68552 1.09734e-38
1.35634 1.80505 3.71208 1.0789e-38
1.35165 1.76832 3.69925 1.13419e-38
1.34658 1.75157 3.68539 1.13408e-38
1.33062 1.7208 3.64168 1.15262e-38
1.35475 1.73164 3.70775 1.19872e-38
1.34527 1.7094 3.68179 1.17106e-38
1.35166 1.70736 3.69928 1.19872e-38
1.3517 1.69725 3.69939 1.1711e-38
1.33754 1.66942 3.66065 1.1711e-38
1.36414 1.68209 3.73343 1.19876e-38
1.35938 1.666 3.7204 1.14355e-38
1.35686 1.65271 3.7135 1.22645e-38
1.35041 1.6347 3.69585 1.19879e-38
1.3488 1.62262 3.69147 1.24489e-38
1.34943 1.61323 3.69319 1.23567e-38
1.35069 1.60458 3.69663 1.23557e-38
1.34272 1.58502 3.67482 1.21713e-38
1.34107 1.57299 3.67031 1.26322e-38
1.34358 1.56583 3.67717 1.24475e-38
1.34169 1.55353 3.67199 1.28163e-38
1.34325 1.54524 3.67626 1.30932e-38
1.34203 1.53375 3.67292 1.2817e-38
1.33877 1.51996 3.664 1.30014e-38
1.34627 1.51835 3.68454 1.27252e-38
1.35606 1.51919 3.71131 1.36471e-38
1.35922 1.51251 3.71996 1.29095e-38
1.35917 1.50224 3.71984 1.32783e-38
1.35456 1.48696 3.70722 1.34627e-38
1.34632 1.46779 3.68467 1.30936e-38
1.33817 1.44885 3.66237 1.38312e-38
1.34066 1.44146 3.66918 1.36468e-38
1.34296 1.43383 3.67546 1.3278e-38
1.34525 1.42616 3.68173 1.36464e-38
1.34641 1.41727 3.6849 1.36464e-38
1.36391 1.42544 3.73281 1.35542e-38
1.36043 1.41158 3.72329 1.4384e-38
1.36164 1.40259 3.72658 1.42003e-38
1.35431 1.38486 3.70653 1.43847e-38
1.35647 1.37687 3.71246 1.42003e-38
1.35266 1.36283 3.70203 1.42925e-38
1.34798 1.34798 3.68921 1.45691e-38
1.3522 1.34203 3.70075 1.42925e-38
1.35286 1.33252 3.70257 1.43847e-38
1.35733 1.32672 3.71481 1.43858e-38
1.35983 1.31894 3.72165 1.45705e-38
1.35268 1.30183 3.70207 1.47542e-38
1.34952 1.28864 3.69341 1.42939e-38
1.35083 1.27973 3.69699 1.45705e-38
1.3481 1.26701 3.68953 1.45709e-38
1.3424 1.25157 3.67395 1.42021e-38
1.34046 1.23967 3.66863 1.46627e-38
1.34897 1.2374 3.69192 1.50318e-38
1.35216 1.23016 3.70064 1.47553e-38
1.34721 1.21553 3.6871 1.54932e-38
1.34797 1.20608 3.68918 1.57691e-38
1.34962 1.1974 3.69369 1.52162e-38
1.34836 1.18615 3.69024 1.5124e-38
1.35007 1.17751 3.69494 1.50318e-38
1.35352 1.17033 3.70436 1.52162e-38
1.35396 1.16054 3.70558 1.55847e-38
1.34675 1.14423 3.68584 1.52159e-38
1.34522 1.13282 3.68166 1.55854e-38
1.34581 1.1232 3.68328 1.59534e-38
1.34901 1.11572 3.69203 1.57694e-38
1.34918 1.10572 3.69249 1.54006e-38
1.34633 1.09326 3.6847 1.60453e-38
1.35112 1.08699 3.69779 1.59531e-38
1.35072 1.07651 3.69671 1.63219e-38
1.34788 1.06412 3.68895 1.57687e-38
1.34479 1.05156 3.68047 1.59534e-38
1.3475 1.04355 3.6879 1.63222e-38
1.35345 1.03798 3.70417 1.58616e-38
1.3453 1.02162 3.68187 1.63226e-38
1.34347 1.01012 3.67685 1.6046e-38
1.34024 0.997619 3.66801 1.623e-38
1.34462 0.990776 3.68003 1.63222e-38
1.35369 0.98728 3.70485 1.65066e-38
1.35655 0.97916 3.71265 1.65988e-38
1.35034 0.964527 3.69566 1.6691e-38
1.3491 0.953497 3.69227 1.65985e-38
1.3586 0.949995 3.71826 1.68747e-38
1.3571 0.938743 3.71416 1.6691e-38
1.35673 0.928292 3.71317 1.6691e-38
1.35461 0.916656 3.70737 1.67832e-38
1.35255 0.905092 3.70173 1.68754e-38
1.34954 0.892931 3.69349 1.68754e-38
1.34678 0.880975 3.68592 1.70601e-38
1.35411 0.875593 3.706 1.70598e-38
1.35776 0.86774 3.71597 1.71513e-38
1.35297 0.854506 3.70286 1.7152e-38
1.35028 0.842657 3.69551 1.70598e-38
1.35066 0.832737 3.69654 1.70605e-38
1.35629 0.826009 3.71194 1.67839e-38
1.35741 0.816489 3.71503 1.70598e-38
1.35572 0.805277 3.71039 1.72445e-38
1.34876 0.790999 3.69133 1.72442e-38
1.35003 0.781598 3.69483 1.7152e-38
1.34571 0.768979 3.68301 1.72449e-38
1.35194 0.762371 3.70004 1.71527e-38
1.35494 0.753877 3.70826 1.73364e-38
1.35837 0.745574 3.71766 1.72442e-38
1.3513 0.731532 3.6983 1.73357e-38
1.34516 0.718094 3.6815 1.74279e-38
1.34718 0.709041 3.68702 1.7336e-38
1.3467 0.698664 3.68571 1.74279e-38
1.34738 0.688887 3.68757 1.73364e-38
1.34934 0.679745 3.69294 1.75208e-38
1.35002 0.669936 3.6948 1.73364e-38
1.34636 0.657993 3.68476 1.74286e-38
1.3519 0.650538 3.69994 1.75201e-38
1.35415 0.641441 3.7061 1.75201e-38
1.35392 0.631151 3.70547 1.76122e-38
1.35322 0.620648 3.70354 1.76126e-38
1.35084 0.609401 3.69703 1.77966e-38
1.34976 0.598766 3.69408 1.77052e-38
1.35092 0.589125 3.69727 1.75208e-38
1.35406 0.580312 3.70585 1.73364e-38
1.34967 0.568283 3.69384 1.74279e-38
1.35086 0.558625 3.69708 1.7797e-38
1.3539 0.549703 3.70541 1.7336e-38
1.35547 0.54015 3.70971 1.74289e-38
